ply
format ascii 1.0
comment Created in Blender version 4.3.2
comment CPTu sensitivity screening - Valsson 2025
comment x(Bq) y(Fr) z(Qt)
element vertex 789
property float x
property float y
property float z
end_header
0.342570006847381592 2.08901000022888184 24.5040798187255859
0.342570006847381592 2.08901000022888184 25.1919898986816406
0.342570006847381592 2.08901000022888184 25.8992195129394531
0.342570006847381592 2.08901000022888184 26.6262893676757812
0.342570006847381592 2.08901000022888184 27.3737697601318359
0.342570006847381592 2.08901000022888184 28.1422405242919922
0.342570006847381592 2.08901000022888184 28.9322891235351562
0.342570006847381592 2.08901000022888184 29.7445106506347656
0.342570006847381592 2.08901000022888184 30.5795307159423828
0.342570006847381592 2.08901000022888184 31.4379997253417969
0.342570006847381592 2.12007999420166016 23.8349609375
0.342570006847381592 2.12007999420166016 24.5040798187255859
0.342570006847381592 2.12007999420166016 25.1919898986816406
0.342570006847381592 2.12007999420166016 25.8992195129394531
0.342570006847381592 2.12007999420166016 26.6262893676757812
0.342570006847381592 2.12007999420166016 27.3737697601318359
0.342570006847381592 2.12007999420166016 28.1422405242919922
0.342570006847381592 2.12007999420166016 28.9322891235351562
0.342570006847381592 2.12007999420166016 29.7445106506347656
0.342570006847381592 2.12007999420166016 30.5795307159423828
0.342570006847381592 2.12007999420166016 31.4379997253417969
0.342570006847381592 2.15161991119384766 23.8349609375
0.342570006847381592 2.15161991119384766 24.5040798187255859
0.342570006847381592 2.15161991119384766 25.1919898986816406
0.342570006847381592 2.15161991119384766 25.8992195129394531
0.342570006847381592 2.15161991119384766 26.6262893676757812
0.342570006847381592 2.15161991119384766 27.3737697601318359
0.342570006847381592 2.15161991119384766 28.1422405242919922
0.342570006847381592 2.15161991119384766 28.9322891235351562
0.342570006847381592 2.15161991119384766 29.7445106506347656
0.342570006847381592 2.15161991119384766 30.5795307159423828
0.342570006847381592 2.18362998962402344 23.8349609375
0.342570006847381592 2.18362998962402344 24.5040798187255859
0.342570006847381592 2.18362998962402344 25.1919898986816406
0.342570006847381592 2.18362998962402344 25.8992195129394531
0.342570006847381592 2.18362998962402344 26.6262893676757812
0.342570006847381592 2.18362998962402344 27.3737697601318359
0.342570006847381592 2.18362998962402344 28.1422405242919922
0.342570006847381592 2.18362998962402344 28.9322891235351562
0.342570006847381592 2.18362998962402344 29.7445106506347656
0.342570006847381592 2.18362998962402344 30.5795307159423828
0.342570006847381592 2.2161099910736084 23.8349609375
0.342570006847381592 2.2161099910736084 24.5040798187255859
0.342570006847381592 2.2161099910736084 25.1919898986816406
0.342570006847381592 2.2161099910736084 25.8992195129394531
0.342570006847381592 2.2161099910736084 26.6262893676757812
0.342570006847381592 2.2161099910736084 27.3737697601318359
0.342570006847381592 2.2161099910736084 28.1422405242919922
0.342570006847381592 2.2161099910736084 28.9322891235351562
0.342570006847381592 2.2161099910736084 29.7445106506347656
0.342570006847381592 2.2161099910736084 30.5795307159423828
0.342570006847381592 2.24907994270324707 24.5040798187255859
0.342570006847381592 2.24907994270324707 25.1919898986816406
0.342570006847381592 2.24907994270324707 25.8992195129394531
0.342570006847381592 2.24907994270324707 26.6262893676757812
0.342570006847381592 2.24907994270324707 27.3737697601318359
0.342570006847381592 2.24907994270324707 28.1422405242919922
0.342570006847381592 2.24907994270324707 28.9322891235351562
0.342570006847381592 2.24907994270324707 29.7445106506347656
0.342570006847381592 2.24907994270324707 30.5795307159423828
0.342570006847381592 2.28253006935119629 24.5040798187255859
0.342570006847381592 2.28253006935119629 25.1919898986816406
0.342570006847381592 2.28253006935119629 25.8992195129394531
0.342570006847381592 2.28253006935119629 26.6262893676757812
0.342570006847381592 2.28253006935119629 27.3737697601318359
0.342570006847381592 2.28253006935119629 28.1422405242919922
0.342570006847381592 2.28253006935119629 28.9322891235351562
0.342570006847381592 2.28253006935119629 29.7445106506347656
0.342570006847381592 2.28253006935119629 30.5795307159423828
0.342570006847381592 2.31648993492126465 24.5040798187255859
0.342570006847381592 2.31648993492126465 25.1919898986816406
0.342570006847381592 2.31648993492126465 25.8992195129394531
0.342570006847381592 2.31648993492126465 26.6262893676757812
0.342570006847381592 2.31648993492126465 27.3737697601318359
0.342570006847381592 2.31648993492126465 28.1422405242919922
0.342570006847381592 2.31648993492126465 28.9322891235351562
0.342570006847381592 2.31648993492126465 29.7445106506347656
0.342570006847381592 2.31648993492126465 30.5795307159423828
0.342570006847381592 2.35095000267028809 24.5040798187255859
0.342570006847381592 2.35095000267028809 25.1919898986816406
0.342570006847381592 2.35095000267028809 25.8992195129394531
0.342570006847381592 2.35095000267028809 26.6262893676757812
0.342570006847381592 2.35095000267028809 27.3737697601318359
0.342570006847381592 2.35095000267028809 28.1422405242919922
0.342570006847381592 2.35095000267028809 28.9322891235351562
0.342570006847381592 2.35095000267028809 29.7445106506347656
0.342570006847381592 2.38592004776000977 25.1919898986816406
0.342570006847381592 2.38592004776000977 25.8992195129394531
0.342570006847381592 2.38592004776000977 26.6262893676757812
0.342570006847381592 2.38592004776000977 27.3737697601318359
0.342570006847381592 2.38592004776000977 28.1422405242919922
0.342570006847381592 2.38592004776000977 28.9322891235351562
0.342570006847381592 2.38592004776000977 29.7445106506347656
0.342570006847381592 2.42141008377075195 25.1919898986816406
0.342570006847381592 2.42141008377075195 25.8992195129394531
0.342570006847381592 2.42141008377075195 26.6262893676757812
0.342570006847381592 2.42141008377075195 27.3737697601318359
0.342570006847381592 2.42141008377075195 28.1422405242919922
0.342570006847381592 2.42141008377075195 28.9322891235351562
0.342570006847381592 2.42141008377075195 29.7445106506347656
0.342570006847381592 2.45742988586425781 16.6303596496582031
0.342570006847381592 2.45742988586425781 17.0972404479980469
0.342570006847381592 2.45742988586425781 25.1919898986816406
0.342570006847381592 2.45742988586425781 25.8992195129394531
0.342570006847381592 2.45742988586425781 26.6262893676757812
0.342570006847381592 2.45742988586425781 27.3737697601318359
0.342570006847381592 2.45742988586425781 28.1422405242919922
0.342570006847381592 2.45742988586425781 28.9322891235351562
0.342570006847381592 2.49397993087768555 16.6303596496582031
0.342570006847381592 2.49397993087768555 17.0972404479980469
0.342570006847381592 2.49397993087768555 25.1919898986816406
0.342570006847381592 2.49397993087768555 25.8992195129394531
0.342570006847381592 2.49397993087768555 26.6262893676757812
0.342570006847381592 2.49397993087768555 27.3737697601318359
0.342570006847381592 2.49397993087768555 28.1422405242919922
0.342570006847381592 2.49397993087768555 28.9322891235351562
0.342570006847381592 2.53108000755310059 16.6303596496582031
0.342570006847381592 2.53108000755310059 17.0972404479980469
0.342570006847381592 2.53108000755310059 25.1919898986816406
0.342570006847381592 2.53108000755310059 25.8992195129394531
0.342570006847381592 2.53108000755310059 26.6262893676757812
0.342570006847381592 2.53108000755310059 27.3737697601318359
0.342570006847381592 2.53108000755310059 28.1422405242919922
0.342570006847381592 2.53108000755310059 28.9322891235351562
0.342570006847381592 2.56873989105224609 16.1762504577636719
0.342570006847381592 2.56873989105224609 16.6303596496582031
0.342570006847381592 2.56873989105224609 17.0972404479980469
0.342570006847381592 2.56873989105224609 25.8992195129394531
0.342570006847381592 2.56873989105224609 26.6262893676757812
0.342570006847381592 2.56873989105224609 27.3737697601318359
0.342570006847381592 2.56873989105224609 28.1422405242919922
0.342570006847381592 2.60695004463195801 16.1762504577636719
0.342570006847381592 2.60695004463195801 16.6303596496582031
0.342570006847381592 2.60695004463195801 17.0972404479980469
0.342570006847381592 2.60695004463195801 25.8992195129394531
0.342570006847381592 2.60695004463195801 26.6262893676757812
0.342570006847381592 2.60695004463195801 27.3737697601318359
0.342570006847381592 2.60695004463195801 28.1422405242919922
0.342570006847381592 2.64573001861572266 16.1762504577636719
0.342570006847381592 2.64573001861572266 16.6303596496582031
0.342570006847381592 2.64573001861572266 17.0972404479980469
0.342570006847381592 2.64573001861572266 17.57720947265625
0.342570006847381592 2.64573001861572266 25.8992195129394531
0.342570006847381592 2.64573001861572266 26.6262893676757812
0.342570006847381592 2.64573001861572266 27.3737697601318359
0.342570006847381592 2.68508005142211914 16.1762504577636719
0.342570006847381592 2.68508005142211914 16.6303596496582031
0.342570006847381592 2.68508005142211914 17.0972404479980469
0.342570006847381592 2.68508005142211914 17.57720947265625
0.342570006847381592 2.68508005142211914 25.8992195129394531
0.342570006847381592 2.68508005142211914 26.6262893676757812
0.342570006847381592 2.68508005142211914 27.3737697601318359
0.342570006847381592 2.72502994537353516 16.1762504577636719
0.342570006847381592 2.72502994537353516 16.6303596496582031
0.342570006847381592 2.72502994537353516 17.0972404479980469
0.342570006847381592 2.72502994537353516 17.57720947265625
0.342570006847381592 2.72502994537353516 25.8992195129394531
0.342570006847381592 2.72502994537353516 26.6262893676757812
0.342570006847381592 2.76555991172790527 16.1762504577636719
0.342570006847381592 2.76555991172790527 16.6303596496582031
0.342570006847381592 2.76555991172790527 17.0972404479980469
0.342570006847381592 2.76555991172790527 17.57720947265625
0.342570006847381592 2.76555991172790527 25.8992195129394531
0.342570006847381592 2.76555991172790527 26.6262893676757812
0.342570006847381592 2.80669999122619629 16.1762504577636719
0.342570006847381592 2.80669999122619629 16.6303596496582031
0.342570006847381592 2.80669999122619629 17.0972404479980469
0.342570006847381592 2.80669999122619629 17.57720947265625
0.342570006847381592 2.80669999122619629 25.8992195129394531
0.342570006847381592 2.80669999122619629 26.6262893676757812
0.342570006847381592 2.8484499454498291 16.1762504577636719
0.342570006847381592 2.8484499454498291 16.6303596496582031
0.342570006847381592 2.8484499454498291 17.0972404479980469
0.342570006847381592 2.8484499454498291 17.57720947265625
0.342570006847381592 2.8484499454498291 25.8992195129394531
0.342570006847381592 2.89083003997802734 16.1762504577636719
0.342570006847381592 2.89083003997802734 16.6303596496582031
0.342570006847381592 2.89083003997802734 17.0972404479980469
0.342570006847381592 2.89083003997802734 17.57720947265625
0.342570006847381592 2.89083003997802734 25.8992195129394531
0.342570006847381592 2.93383002281188965 15.7345304489135742
0.342570006847381592 2.93383002281188965 16.1762504577636719
0.342570006847381592 2.93383002281188965 16.6303596496582031
0.342570006847381592 2.93383002281188965 17.0972404479980469
0.342570006847381592 2.93383002281188965 17.57720947265625
0.342570006847381592 2.97746992111206055 15.7345304489135742
0.342570006847381592 2.97746992111206055 16.1762504577636719
0.342570006847381592 2.97746992111206055 16.6303596496582031
0.342570006847381592 2.97746992111206055 17.0972404479980469
0.342570006847381592 2.97746992111206055 17.57720947265625
0.342570006847381592 3.02175998687744141 15.7345304489135742
0.342570006847381592 3.02175998687744141 16.1762504577636719
0.342570006847381592 3.02175998687744141 16.6303596496582031
0.342570006847381592 3.02175998687744141 17.0972404479980469
0.342570006847381592 3.02175998687744141 17.57720947265625
0.342570006847381592 3.06670999526977539 15.7345304489135742
0.342570006847381592 3.06670999526977539 16.1762504577636719
0.342570006847381592 3.06670999526977539 16.6303596496582031
0.342570006847381592 3.06670999526977539 17.0972404479980469
0.342570006847381592 3.06670999526977539 17.57720947265625
0.342570006847381592 3.11232995986938477 15.7345304489135742
0.342570006847381592 3.11232995986938477 16.1762504577636719
0.342570006847381592 3.11232995986938477 16.6303596496582031
0.342570006847381592 3.11232995986938477 17.0972404479980469
0.342570006847381592 3.11232995986938477 17.57720947265625
0.342570006847381592 3.1586298942565918 15.7345304489135742
0.342570006847381592 3.1586298942565918 16.1762504577636719
0.342570006847381592 3.1586298942565918 16.6303596496582031
0.342570006847381592 3.1586298942565918 17.0972404479980469
0.342570006847381592 3.1586298942565918 17.57720947265625
0.342570006847381592 3.20562005043029785 15.7345304489135742
0.342570006847381592 3.20562005043029785 16.1762504577636719
0.342570006847381592 3.20562005043029785 16.6303596496582031
0.342570006847381592 3.20562005043029785 17.0972404479980469
0.342570006847381592 3.20562005043029785 17.57720947265625
0.342570006847381592 3.25329995155334473 16.1762504577636719
0.342570006847381592 3.25329995155334473 16.6303596496582031
0.342570006847381592 3.25329995155334473 17.0972404479980469
0.342570006847381592 3.25329995155334473 17.57720947265625
0.342570006847381592 3.30170011520385742 16.1762504577636719
0.342570006847381592 3.30170011520385742 16.6303596496582031
0.342570006847381592 3.30170011520385742 17.0972404479980469
0.342570006847381592 3.30170011520385742 17.57720947265625
0.342570006847381592 3.35081005096435547 16.1762504577636719
0.342570006847381592 3.35081005096435547 16.6303596496582031
0.342570006847381592 3.35081005096435547 17.0972404479980469
0.342570006847381592 3.35081005096435547 17.57720947265625
0.342570006847381592 3.40066003799438477 16.1762504577636719
0.342570006847381592 3.40066003799438477 16.6303596496582031
0.342570006847381592 3.40066003799438477 17.0972404479980469
0.342570006847381592 3.40066003799438477 17.57720947265625
0.342570006847381592 3.45125007629394531 16.1762504577636719
0.342570006847381592 3.45125007629394531 16.6303596496582031
0.342570006847381592 3.45125007629394531 17.0972404479980469
0.342570006847381592 3.45125007629394531 17.57720947265625
0.342570006847381592 3.50258994102478027 16.1762504577636719
0.342570006847381592 3.50258994102478027 16.6303596496582031
0.342570006847381592 3.50258994102478027 17.0972404479980469
0.342570006847381592 3.55468988418579102 16.6303596496582031
0.342570006847381592 3.55468988418579102 17.0972404479980469
0.342570006847381592 3.60756993293762207 16.6303596496582031
0.356590002775192261 0.998390018939971924 25.8992195129394531
0.356590002775192261 1.01323997974395752 25.8992195129394531
0.356590002775192261 1.02830994129180908 25.1919898986816406
0.356590002775192261 1.02830994129180908 25.8992195129394531
0.356590002775192261 1.04360997676849365 25.1919898986816406
0.356590002775192261 1.04360997676849365 25.8992195129394531
0.356590002775192261 1.05912995338439941 25.1919898986816406
0.356590002775192261 1.05912995338439941 25.8992195129394531
0.356590002775192261 1.05912995338439941 26.6262893676757812
0.356590002775192261 1.07489001750946045 25.1919898986816406
0.356590002775192261 1.07489001750946045 25.8992195129394531
0.356590002775192261 1.07489001750946045 26.6262893676757812
0.356590002775192261 1.09088003635406494 25.1919898986816406
0.356590002775192261 1.09088003635406494 25.8992195129394531
0.356590002775192261 1.09088003635406494 26.6262893676757812
0.356590002775192261 1.10710000991821289 24.5040798187255859
0.356590002775192261 1.10710000991821289 25.1919898986816406
0.356590002775192261 1.10710000991821289 25.8992195129394531
0.356590002775192261 1.10710000991821289 26.6262893676757812
0.356590002775192261 1.12356996536254883 24.5040798187255859
0.356590002775192261 1.12356996536254883 25.1919898986816406
0.356590002775192261 1.12356996536254883 25.8992195129394531
0.356590002775192261 1.12356996536254883 26.6262893676757812
0.356590002775192261 1.1402900218963623 24.5040798187255859
0.356590002775192261 1.1402900218963623 25.1919898986816406
0.356590002775192261 1.1402900218963623 25.8992195129394531
0.356590002775192261 1.1402900218963623 26.6262893676757812
0.356590002775192261 1.1402900218963623 27.3737697601318359
0.356590002775192261 1.1572500467300415 24.5040798187255859
0.356590002775192261 1.1572500467300415 25.1919898986816406
0.356590002775192261 1.1572500467300415 25.8992195129394531
0.356590002775192261 1.1572500467300415 26.6262893676757812
0.356590002775192261 1.1572500467300415 27.3737697601318359
0.356590002775192261 1.17446005344390869 24.5040798187255859
0.356590002775192261 1.17446005344390869 25.1919898986816406
0.356590002775192261 1.17446005344390869 25.8992195129394531
0.356590002775192261 1.17446005344390869 26.6262893676757812
0.356590002775192261 1.17446005344390869 27.3737697601318359
0.356590002775192261 1.19193005561828613 23.8349609375
0.356590002775192261 1.19193005561828613 24.5040798187255859
0.356590002775192261 1.19193005561828613 25.1919898986816406
0.356590002775192261 1.19193005561828613 25.8992195129394531
0.356590002775192261 1.19193005561828613 26.6262893676757812
0.356590002775192261 1.19193005561828613 27.3737697601318359
0.356590002775192261 1.20966994762420654 23.8349609375
0.356590002775192261 1.20966994762420654 24.5040798187255859
0.356590002775192261 1.20966994762420654 25.1919898986816406
0.356590002775192261 1.20966994762420654 25.8992195129394531
0.356590002775192261 1.20966994762420654 26.6262893676757812
0.356590002775192261 1.20966994762420654 27.3737697601318359
0.356590002775192261 1.22765994071960449 23.8349609375
0.356590002775192261 1.22765994071960449 24.5040798187255859
0.356590002775192261 1.22765994071960449 25.1919898986816406
0.356590002775192261 1.22765994071960449 25.8992195129394531
0.356590002775192261 1.22765994071960449 26.6262893676757812
0.356590002775192261 1.22765994071960449 27.3737697601318359
0.356590002775192261 1.22765994071960449 28.1422405242919922
0.356590002775192261 1.24591994285583496 23.8349609375
0.356590002775192261 1.24591994285583496 24.5040798187255859
0.356590002775192261 1.24591994285583496 25.1919898986816406
0.356590002775192261 1.24591994285583496 25.8992195129394531
0.356590002775192261 1.24591994285583496 26.6262893676757812
0.356590002775192261 1.24591994285583496 27.3737697601318359
0.356590002775192261 1.24591994285583496 28.1422405242919922
0.356590002775192261 1.26445996761322021 23.8349609375
0.356590002775192261 1.26445996761322021 24.5040798187255859
0.356590002775192261 1.26445996761322021 25.1919898986816406
0.356590002775192261 1.26445996761322021 25.8992195129394531
0.356590002775192261 1.26445996761322021 26.6262893676757812
0.356590002775192261 1.26445996761322021 27.3737697601318359
0.356590002775192261 1.26445996761322021 28.1422405242919922
0.356590002775192261 1.28327000141143799 23.8349609375
0.356590002775192261 1.28327000141143799 24.5040798187255859
0.356590002775192261 1.28327000141143799 25.1919898986816406
0.356590002775192261 1.28327000141143799 25.8992195129394531
0.356590002775192261 1.28327000141143799 26.6262893676757812
0.356590002775192261 1.28327000141143799 27.3737697601318359
0.356590002775192261 1.28327000141143799 28.1422405242919922
0.356590002775192261 1.30236005783081055 23.1841106414794922
0.356590002775192261 1.30236005783081055 23.8349609375
0.356590002775192261 1.30236005783081055 24.5040798187255859
0.356590002775192261 1.30236005783081055 25.1919898986816406
0.356590002775192261 1.30236005783081055 25.8992195129394531
0.356590002775192261 1.30236005783081055 26.6262893676757812
0.356590002775192261 1.30236005783081055 27.3737697601318359
0.356590002775192261 1.30236005783081055 28.1422405242919922
0.356590002775192261 1.32173001766204834 23.1841106414794922
0.356590002775192261 1.32173001766204834 23.8349609375
0.356590002775192261 1.32173001766204834 24.5040798187255859
0.356590002775192261 1.32173001766204834 25.1919898986816406
0.356590002775192261 1.32173001766204834 25.8992195129394531
0.356590002775192261 1.32173001766204834 26.6262893676757812
0.356590002775192261 1.32173001766204834 27.3737697601318359
0.356590002775192261 1.32173001766204834 28.1422405242919922
0.356590002775192261 1.34139001369476318 23.1841106414794922
0.356590002775192261 1.34139001369476318 23.8349609375
0.356590002775192261 1.34139001369476318 24.5040798187255859
0.356590002775192261 1.34139001369476318 25.1919898986816406
0.356590002775192261 1.34139001369476318 25.8992195129394531
0.356590002775192261 1.34139001369476318 26.6262893676757812
0.356590002775192261 1.34139001369476318 27.3737697601318359
0.356590002775192261 1.34139001369476318 28.1422405242919922
0.356590002775192261 1.34139001369476318 28.9322891235351562
0.356590002775192261 1.36134004592895508 23.1841106414794922
0.356590002775192261 1.36134004592895508 23.8349609375
0.356590002775192261 1.36134004592895508 24.5040798187255859
0.356590002775192261 1.36134004592895508 25.1919898986816406
0.356590002775192261 1.36134004592895508 25.8992195129394531
0.356590002775192261 1.36134004592895508 26.6262893676757812
0.356590002775192261 1.36134004592895508 27.3737697601318359
0.356590002775192261 1.36134004592895508 28.1422405242919922
0.356590002775192261 1.36134004592895508 28.9322891235351562
0.356590002775192261 1.381600022315979 23.1841106414794922
0.356590002775192261 1.381600022315979 23.8349609375
0.356590002775192261 1.381600022315979 24.5040798187255859
0.356590002775192261 1.381600022315979 25.1919898986816406
0.356590002775192261 1.381600022315979 25.8992195129394531
0.356590002775192261 1.381600022315979 26.6262893676757812
0.356590002775192261 1.381600022315979 27.3737697601318359
0.356590002775192261 1.381600022315979 28.1422405242919922
0.356590002775192261 1.381600022315979 28.9322891235351562
0.356590002775192261 1.40215003490447998 22.5510292053222656
0.356590002775192261 1.40215003490447998 23.1841106414794922
0.356590002775192261 1.40215003490447998 23.8349609375
0.356590002775192261 1.40215003490447998 24.5040798187255859
0.356590002775192261 1.40215003490447998 25.1919898986816406
0.356590002775192261 1.40215003490447998 25.8992195129394531
0.356590002775192261 1.40215003490447998 26.6262893676757812
0.356590002775192261 1.40215003490447998 27.3737697601318359
0.356590002775192261 1.40215003490447998 28.1422405242919922
0.356590002775192261 1.40215003490447998 28.9322891235351562
0.356590002775192261 1.42299997806549072 22.5510292053222656
0.356590002775192261 1.42299997806549072 23.1841106414794922
0.356590002775192261 1.42299997806549072 23.8349609375
0.356590002775192261 1.42299997806549072 24.5040798187255859
0.356590002775192261 1.42299997806549072 25.1919898986816406
0.356590002775192261 1.42299997806549072 25.8992195129394531
0.356590002775192261 1.42299997806549072 26.6262893676757812
0.356590002775192261 1.42299997806549072 27.3737697601318359
0.356590002775192261 1.42299997806549072 28.1422405242919922
0.356590002775192261 1.42299997806549072 28.9322891235351562
0.356590002775192261 1.44416999816894531 22.5510292053222656
0.356590002775192261 1.44416999816894531 23.1841106414794922
0.356590002775192261 1.44416999816894531 23.8349609375
0.356590002775192261 1.44416999816894531 24.5040798187255859
0.356590002775192261 1.44416999816894531 25.1919898986816406
0.356590002775192261 1.44416999816894531 25.8992195129394531
0.356590002775192261 1.44416999816894531 26.6262893676757812
0.356590002775192261 1.44416999816894531 27.3737697601318359
0.356590002775192261 1.44416999816894531 28.1422405242919922
0.356590002775192261 1.44416999816894531 28.9322891235351562
0.356590002775192261 1.4656599760055542 22.5510292053222656
0.356590002775192261 1.4656599760055542 23.1841106414794922
0.356590002775192261 1.4656599760055542 23.8349609375
0.356590002775192261 1.4656599760055542 24.5040798187255859
0.356590002775192261 1.4656599760055542 25.1919898986816406
0.356590002775192261 1.4656599760055542 25.8992195129394531
0.356590002775192261 1.4656599760055542 26.6262893676757812
0.356590002775192261 1.4656599760055542 27.3737697601318359
0.356590002775192261 1.4656599760055542 28.1422405242919922
0.356590002775192261 1.4656599760055542 28.9322891235351562
0.356590002775192261 1.4656599760055542 29.7445106506347656
0.356590002775192261 1.48746001720428467 22.5510292053222656
0.356590002775192261 1.48746001720428467 23.1841106414794922
0.356590002775192261 1.48746001720428467 23.8349609375
0.356590002775192261 1.48746001720428467 24.5040798187255859
0.356590002775192261 1.48746001720428467 25.1919898986816406
0.356590002775192261 1.48746001720428467 25.8992195129394531
0.356590002775192261 1.48746001720428467 26.6262893676757812
0.356590002775192261 1.48746001720428467 27.3737697601318359
0.356590002775192261 1.48746001720428467 28.1422405242919922
0.356590002775192261 1.48746001720428467 28.9322891235351562
0.356590002775192261 1.48746001720428467 29.7445106506347656
0.356590002775192261 1.5095900297164917 22.5510292053222656
0.356590002775192261 1.5095900297164917 23.1841106414794922
0.356590002775192261 1.5095900297164917 23.8349609375
0.356590002775192261 1.5095900297164917 24.5040798187255859
0.356590002775192261 1.5095900297164917 25.1919898986816406
0.356590002775192261 1.5095900297164917 25.8992195129394531
0.356590002775192261 1.5095900297164917 26.6262893676757812
0.356590002775192261 1.5095900297164917 27.3737697601318359
0.356590002775192261 1.5095900297164917 28.1422405242919922
0.356590002775192261 1.5095900297164917 28.9322891235351562
0.356590002775192261 1.5095900297164917 29.7445106506347656
0.356590002775192261 1.53203999996185303 22.5510292053222656
0.356590002775192261 1.53203999996185303 23.1841106414794922
0.356590002775192261 1.53203999996185303 23.8349609375
0.356590002775192261 1.53203999996185303 24.5040798187255859
0.356590002775192261 1.53203999996185303 25.1919898986816406
0.356590002775192261 1.53203999996185303 25.8992195129394531
0.356590002775192261 1.53203999996185303 26.6262893676757812
0.356590002775192261 1.53203999996185303 27.3737697601318359
0.356590002775192261 1.53203999996185303 28.1422405242919922
0.356590002775192261 1.53203999996185303 28.9322891235351562
0.356590002775192261 1.53203999996185303 29.7445106506347656
0.356590002775192261 1.55482995510101318 21.9352397918701172
0.356590002775192261 1.55482995510101318 22.5510292053222656
0.356590002775192261 1.55482995510101318 23.1841106414794922
0.356590002775192261 1.55482995510101318 23.8349609375
0.356590002775192261 1.55482995510101318 24.5040798187255859
0.356590002775192261 1.55482995510101318 25.1919898986816406
0.356590002775192261 1.55482995510101318 25.8992195129394531
0.356590002775192261 1.55482995510101318 26.6262893676757812
0.356590002775192261 1.55482995510101318 27.3737697601318359
0.356590002775192261 1.55482995510101318 28.1422405242919922
0.356590002775192261 1.55482995510101318 28.9322891235351562
0.356590002775192261 1.55482995510101318 29.7445106506347656
0.356590002775192261 1.57796001434326172 21.9352397918701172
0.356590002775192261 1.57796001434326172 22.5510292053222656
0.356590002775192261 1.57796001434326172 23.1841106414794922
0.356590002775192261 1.57796001434326172 23.8349609375
0.356590002775192261 1.57796001434326172 24.5040798187255859
0.356590002775192261 1.57796001434326172 25.1919898986816406
0.356590002775192261 1.57796001434326172 25.8992195129394531
0.356590002775192261 1.57796001434326172 26.6262893676757812
0.356590002775192261 1.57796001434326172 27.3737697601318359
0.356590002775192261 1.57796001434326172 28.1422405242919922
0.356590002775192261 1.57796001434326172 28.9322891235351562
0.356590002775192261 1.57796001434326172 29.7445106506347656
0.356590002775192261 1.60143005847930908 21.9352397918701172
0.356590002775192261 1.60143005847930908 22.5510292053222656
0.356590002775192261 1.60143005847930908 23.1841106414794922
0.356590002775192261 1.60143005847930908 23.8349609375
0.356590002775192261 1.60143005847930908 24.5040798187255859
0.356590002775192261 1.60143005847930908 25.1919898986816406
0.356590002775192261 1.60143005847930908 25.8992195129394531
0.356590002775192261 1.60143005847930908 26.6262893676757812
0.356590002775192261 1.60143005847930908 27.3737697601318359
0.356590002775192261 1.60143005847930908 28.1422405242919922
0.356590002775192261 1.60143005847930908 28.9322891235351562
0.356590002775192261 1.60143005847930908 29.7445106506347656
0.356590002775192261 1.62525999546051025 21.9352397918701172
0.356590002775192261 1.62525999546051025 22.5510292053222656
0.356590002775192261 1.62525999546051025 23.1841106414794922
0.356590002775192261 1.62525999546051025 23.8349609375
0.356590002775192261 1.62525999546051025 24.5040798187255859
0.356590002775192261 1.62525999546051025 25.1919898986816406
0.356590002775192261 1.62525999546051025 25.8992195129394531
0.356590002775192261 1.62525999546051025 26.6262893676757812
0.356590002775192261 1.62525999546051025 27.3737697601318359
0.356590002775192261 1.62525999546051025 28.1422405242919922
0.356590002775192261 1.62525999546051025 28.9322891235351562
0.356590002775192261 1.62525999546051025 29.7445106506347656
0.356590002775192261 1.6494300365447998 21.9352397918701172
0.356590002775192261 1.6494300365447998 22.5510292053222656
0.356590002775192261 1.6494300365447998 23.1841106414794922
0.356590002775192261 1.6494300365447998 23.8349609375
0.356590002775192261 1.6494300365447998 24.5040798187255859
0.356590002775192261 1.6494300365447998 25.1919898986816406
0.356590002775192261 1.6494300365447998 25.8992195129394531
0.356590002775192261 1.6494300365447998 26.6262893676757812
0.356590002775192261 1.6494300365447998 27.3737697601318359
0.356590002775192261 1.6494300365447998 28.1422405242919922
0.356590002775192261 1.6494300365447998 28.9322891235351562
0.356590002775192261 1.6494300365447998 29.7445106506347656
0.356590002775192261 1.6494300365447998 30.5795307159423828
0.356590002775192261 1.67396998405456543 21.9352397918701172
0.356590002775192261 1.67396998405456543 22.5510292053222656
0.356590002775192261 1.67396998405456543 23.1841106414794922
0.356590002775192261 1.67396998405456543 23.8349609375
0.356590002775192261 1.67396998405456543 24.5040798187255859
0.356590002775192261 1.67396998405456543 25.1919898986816406
0.356590002775192261 1.67396998405456543 25.8992195129394531
0.356590002775192261 1.67396998405456543 26.6262893676757812
0.356590002775192261 1.67396998405456543 27.3737697601318359
0.356590002775192261 1.67396998405456543 28.1422405242919922
0.356590002775192261 1.67396998405456543 28.9322891235351562
0.356590002775192261 1.67396998405456543 29.7445106506347656
0.356590002775192261 1.67396998405456543 30.5795307159423828
0.356590002775192261 1.69886994361877441 21.9352397918701172
0.356590002775192261 1.69886994361877441 22.5510292053222656
0.356590002775192261 1.69886994361877441 23.1841106414794922
0.356590002775192261 1.69886994361877441 23.8349609375
0.356590002775192261 1.69886994361877441 24.5040798187255859
0.356590002775192261 1.69886994361877441 25.1919898986816406
0.356590002775192261 1.69886994361877441 25.8992195129394531
0.356590002775192261 1.69886994361877441 26.6262893676757812
0.356590002775192261 1.69886994361877441 27.3737697601318359
0.356590002775192261 1.69886994361877441 28.1422405242919922
0.356590002775192261 1.69886994361877441 28.9322891235351562
0.356590002775192261 1.69886994361877441 29.7445106506347656
0.356590002775192261 1.69886994361877441 30.5795307159423828
0.356590002775192261 1.72414004802703857 21.9352397918701172
0.356590002775192261 1.72414004802703857 22.5510292053222656
0.356590002775192261 1.72414004802703857 23.1841106414794922
0.356590002775192261 1.72414004802703857 23.8349609375
0.356590002775192261 1.72414004802703857 24.5040798187255859
0.356590002775192261 1.72414004802703857 25.1919898986816406
0.356590002775192261 1.72414004802703857 25.8992195129394531
0.356590002775192261 1.72414004802703857 26.6262893676757812
0.356590002775192261 1.72414004802703857 27.3737697601318359
0.356590002775192261 1.72414004802703857 28.1422405242919922
0.356590002775192261 1.72414004802703857 28.9322891235351562
0.356590002775192261 1.72414004802703857 29.7445106506347656
0.356590002775192261 1.72414004802703857 30.5795307159423828
0.356590002775192261 1.74978995323181152 21.9352397918701172
0.356590002775192261 1.74978995323181152 22.5510292053222656
0.356590002775192261 1.74978995323181152 23.1841106414794922
0.356590002775192261 1.74978995323181152 23.8349609375
0.356590002775192261 1.74978995323181152 24.5040798187255859
0.356590002775192261 1.74978995323181152 25.1919898986816406
0.356590002775192261 1.74978995323181152 25.8992195129394531
0.356590002775192261 1.74978995323181152 26.6262893676757812
0.356590002775192261 1.74978995323181152 27.3737697601318359
0.356590002775192261 1.74978995323181152 28.1422405242919922
0.356590002775192261 1.74978995323181152 28.9322891235351562
0.356590002775192261 1.74978995323181152 29.7445106506347656
0.356590002775192261 1.74978995323181152 30.5795307159423828
0.356590002775192261 1.77582001686096191 21.9352397918701172
0.356590002775192261 1.77582001686096191 22.5510292053222656
0.356590002775192261 1.77582001686096191 23.1841106414794922
0.356590002775192261 1.77582001686096191 23.8349609375
0.356590002775192261 1.77582001686096191 24.5040798187255859
0.356590002775192261 1.77582001686096191 25.1919898986816406
0.356590002775192261 1.77582001686096191 25.8992195129394531
0.356590002775192261 1.77582001686096191 26.6262893676757812
0.356590002775192261 1.77582001686096191 27.3737697601318359
0.356590002775192261 1.77582001686096191 28.1422405242919922
0.356590002775192261 1.77582001686096191 28.9322891235351562
0.356590002775192261 1.77582001686096191 29.7445106506347656
0.356590002775192261 1.77582001686096191 30.5795307159423828
0.356590002775192261 1.80224001407623291 21.9352397918701172
0.356590002775192261 1.80224001407623291 22.5510292053222656
0.356590002775192261 1.80224001407623291 23.1841106414794922
0.356590002775192261 1.80224001407623291 23.8349609375
0.356590002775192261 1.80224001407623291 24.5040798187255859
0.356590002775192261 1.80224001407623291 25.1919898986816406
0.356590002775192261 1.80224001407623291 25.8992195129394531
0.356590002775192261 1.80224001407623291 26.6262893676757812
0.356590002775192261 1.80224001407623291 27.3737697601318359
0.356590002775192261 1.80224001407623291 28.1422405242919922
0.356590002775192261 1.80224001407623291 28.9322891235351562
0.356590002775192261 1.80224001407623291 29.7445106506347656
0.356590002775192261 1.80224001407623291 30.5795307159423828
0.356590002775192261 1.82904994487762451 21.9352397918701172
0.356590002775192261 1.82904994487762451 22.5510292053222656
0.356590002775192261 1.82904994487762451 23.1841106414794922
0.356590002775192261 1.82904994487762451 23.8349609375
0.356590002775192261 1.82904994487762451 24.5040798187255859
0.356590002775192261 1.82904994487762451 25.1919898986816406
0.356590002775192261 1.82904994487762451 25.8992195129394531
0.356590002775192261 1.82904994487762451 26.6262893676757812
0.356590002775192261 1.82904994487762451 27.3737697601318359
0.356590002775192261 1.82904994487762451 28.1422405242919922
0.356590002775192261 1.82904994487762451 28.9322891235351562
0.356590002775192261 1.82904994487762451 29.7445106506347656
0.356590002775192261 1.82904994487762451 30.5795307159423828
0.356590002775192261 1.85625004768371582 21.9352397918701172
0.356590002775192261 1.85625004768371582 22.5510292053222656
0.356590002775192261 1.85625004768371582 23.1841106414794922
0.356590002775192261 1.85625004768371582 23.8349609375
0.356590002775192261 1.85625004768371582 24.5040798187255859
0.356590002775192261 1.85625004768371582 25.1919898986816406
0.356590002775192261 1.85625004768371582 25.8992195129394531
0.356590002775192261 1.85625004768371582 26.6262893676757812
0.356590002775192261 1.85625004768371582 27.3737697601318359
0.356590002775192261 1.85625004768371582 28.1422405242919922
0.356590002775192261 1.85625004768371582 28.9322891235351562
0.356590002775192261 1.85625004768371582 29.7445106506347656
0.356590002775192261 1.85625004768371582 30.5795307159423828
0.356590002775192261 1.88387000560760498 22.5510292053222656
0.356590002775192261 1.88387000560760498 23.1841106414794922
0.356590002775192261 1.88387000560760498 23.8349609375
0.356590002775192261 1.88387000560760498 24.5040798187255859
0.356590002775192261 1.88387000560760498 25.1919898986816406
0.356590002775192261 1.88387000560760498 25.8992195129394531
0.356590002775192261 1.88387000560760498 26.6262893676757812
0.356590002775192261 1.88387000560760498 27.3737697601318359
0.356590002775192261 1.88387000560760498 28.1422405242919922
0.356590002775192261 1.88387000560760498 28.9322891235351562
0.356590002775192261 1.88387000560760498 29.7445106506347656
0.356590002775192261 1.88387000560760498 30.5795307159423828
0.356590002775192261 1.91189002990722656 22.5510292053222656
0.356590002775192261 1.91189002990722656 23.1841106414794922
0.356590002775192261 1.91189002990722656 23.8349609375
0.356590002775192261 1.91189002990722656 24.5040798187255859
0.356590002775192261 1.91189002990722656 25.1919898986816406
0.356590002775192261 1.91189002990722656 25.8992195129394531
0.356590002775192261 1.91189002990722656 26.6262893676757812
0.356590002775192261 1.91189002990722656 27.3737697601318359
0.356590002775192261 1.91189002990722656 28.1422405242919922
0.356590002775192261 1.91189002990722656 28.9322891235351562
0.356590002775192261 1.91189002990722656 29.7445106506347656
0.356590002775192261 1.91189002990722656 30.5795307159423828
0.356590002775192261 1.94033002853393555 22.5510292053222656
0.356590002775192261 1.94033002853393555 23.1841106414794922
0.356590002775192261 1.94033002853393555 23.8349609375
0.356590002775192261 1.94033002853393555 24.5040798187255859
0.356590002775192261 1.94033002853393555 25.1919898986816406
0.356590002775192261 1.94033002853393555 25.8992195129394531
0.356590002775192261 1.94033002853393555 26.6262893676757812
0.356590002775192261 1.94033002853393555 27.3737697601318359
0.356590002775192261 1.94033002853393555 28.1422405242919922
0.356590002775192261 1.94033002853393555 28.9322891235351562
0.356590002775192261 1.94033002853393555 29.7445106506347656
0.356590002775192261 1.94033002853393555 30.5795307159423828
0.356590002775192261 1.96919000148773193 22.5510292053222656
0.356590002775192261 1.96919000148773193 23.1841106414794922
0.356590002775192261 1.96919000148773193 23.8349609375
0.356590002775192261 1.96919000148773193 24.5040798187255859
0.356590002775192261 1.96919000148773193 25.1919898986816406
0.356590002775192261 1.96919000148773193 25.8992195129394531
0.356590002775192261 1.96919000148773193 26.6262893676757812
0.356590002775192261 1.96919000148773193 27.3737697601318359
0.356590002775192261 1.96919000148773193 28.1422405242919922
0.356590002775192261 1.96919000148773193 28.9322891235351562
0.356590002775192261 1.96919000148773193 29.7445106506347656
0.356590002775192261 1.96919000148773193 30.5795307159423828
0.356590002775192261 1.99848997592926025 23.1841106414794922
0.356590002775192261 1.99848997592926025 23.8349609375
0.356590002775192261 1.99848997592926025 24.5040798187255859
0.356590002775192261 1.99848997592926025 25.1919898986816406
0.356590002775192261 1.99848997592926025 25.8992195129394531
0.356590002775192261 1.99848997592926025 26.6262893676757812
0.356590002775192261 1.99848997592926025 27.3737697601318359
0.356590002775192261 1.99848997592926025 28.1422405242919922
0.356590002775192261 1.99848997592926025 28.9322891235351562
0.356590002775192261 1.99848997592926025 29.7445106506347656
0.356590002775192261 1.99848997592926025 30.5795307159423828
0.356590002775192261 2.02821993827819824 23.1841106414794922
0.356590002775192261 2.02821993827819824 23.8349609375
0.356590002775192261 2.02821993827819824 24.5040798187255859
0.356590002775192261 2.02821993827819824 25.1919898986816406
0.356590002775192261 2.02821993827819824 25.8992195129394531
0.356590002775192261 2.02821993827819824 26.6262893676757812
0.356590002775192261 2.02821993827819824 27.3737697601318359
0.356590002775192261 2.02821993827819824 28.1422405242919922
0.356590002775192261 2.02821993827819824 28.9322891235351562
0.356590002775192261 2.02821993827819824 29.7445106506347656
0.356590002775192261 2.02821993827819824 30.5795307159423828
0.356590002775192261 2.05838990211486816 23.1841106414794922
0.356590002775192261 2.05838990211486816 23.8349609375
0.356590002775192261 2.05838990211486816 24.5040798187255859
0.356590002775192261 2.05838990211486816 25.1919898986816406
0.356590002775192261 2.05838990211486816 25.8992195129394531
0.356590002775192261 2.05838990211486816 26.6262893676757812
0.356590002775192261 2.05838990211486816 27.3737697601318359
0.356590002775192261 2.05838990211486816 28.1422405242919922
0.356590002775192261 2.05838990211486816 28.9322891235351562
0.356590002775192261 2.05838990211486816 29.7445106506347656
0.356590002775192261 2.05838990211486816 30.5795307159423828
0.356590002775192261 2.08901000022888184 23.8349609375
0.356590002775192261 2.08901000022888184 24.5040798187255859
0.356590002775192261 2.08901000022888184 25.1919898986816406
0.356590002775192261 2.08901000022888184 25.8992195129394531
0.356590002775192261 2.08901000022888184 26.6262893676757812
0.356590002775192261 2.08901000022888184 27.3737697601318359
0.356590002775192261 2.08901000022888184 28.1422405242919922
0.356590002775192261 2.08901000022888184 28.9322891235351562
0.356590002775192261 2.08901000022888184 29.7445106506347656
0.356590002775192261 2.08901000022888184 30.5795307159423828
0.356590002775192261 2.12007999420166016 23.8349609375
0.356590002775192261 2.12007999420166016 24.5040798187255859
0.356590002775192261 2.12007999420166016 25.1919898986816406
0.356590002775192261 2.12007999420166016 25.8992195129394531
0.356590002775192261 2.12007999420166016 26.6262893676757812
0.356590002775192261 2.12007999420166016 27.3737697601318359
0.356590002775192261 2.12007999420166016 28.1422405242919922
0.356590002775192261 2.12007999420166016 28.9322891235351562
0.356590002775192261 2.12007999420166016 29.7445106506347656
0.356590002775192261 2.12007999420166016 30.5795307159423828
0.356590002775192261 2.15161991119384766 23.8349609375
0.356590002775192261 2.15161991119384766 24.5040798187255859
0.356590002775192261 2.15161991119384766 25.1919898986816406
0.356590002775192261 2.15161991119384766 25.8992195129394531
0.356590002775192261 2.15161991119384766 26.6262893676757812
0.356590002775192261 2.15161991119384766 27.3737697601318359
0.356590002775192261 2.15161991119384766 28.1422405242919922
0.356590002775192261 2.15161991119384766 28.9322891235351562
0.356590002775192261 2.15161991119384766 29.7445106506347656
0.356590002775192261 2.15161991119384766 30.5795307159423828
0.356590002775192261 2.18362998962402344 24.5040798187255859
0.356590002775192261 2.18362998962402344 25.1919898986816406
0.356590002775192261 2.18362998962402344 25.8992195129394531
0.356590002775192261 2.18362998962402344 26.6262893676757812
0.356590002775192261 2.18362998962402344 27.3737697601318359
0.356590002775192261 2.18362998962402344 28.1422405242919922
0.356590002775192261 2.18362998962402344 28.9322891235351562
0.356590002775192261 2.18362998962402344 29.7445106506347656
0.356590002775192261 2.18362998962402344 30.5795307159423828
0.356590002775192261 2.2161099910736084 24.5040798187255859
0.356590002775192261 2.2161099910736084 25.1919898986816406
0.356590002775192261 2.2161099910736084 25.8992195129394531
0.356590002775192261 2.2161099910736084 26.6262893676757812
0.356590002775192261 2.2161099910736084 27.3737697601318359
0.356590002775192261 2.2161099910736084 28.1422405242919922
0.356590002775192261 2.2161099910736084 28.9322891235351562
0.356590002775192261 2.2161099910736084 29.7445106506347656
0.356590002775192261 2.2161099910736084 30.5795307159423828
0.356590002775192261 2.24907994270324707 24.5040798187255859
0.356590002775192261 2.24907994270324707 25.1919898986816406
0.356590002775192261 2.24907994270324707 25.8992195129394531
0.356590002775192261 2.24907994270324707 26.6262893676757812
0.356590002775192261 2.24907994270324707 27.3737697601318359
0.356590002775192261 2.24907994270324707 28.1422405242919922
0.356590002775192261 2.24907994270324707 28.9322891235351562
0.356590002775192261 2.24907994270324707 29.7445106506347656
0.356590002775192261 2.24907994270324707 30.5795307159423828
0.356590002775192261 2.28253006935119629 24.5040798187255859
0.356590002775192261 2.28253006935119629 25.1919898986816406
0.356590002775192261 2.28253006935119629 25.8992195129394531
0.356590002775192261 2.28253006935119629 26.6262893676757812
0.356590002775192261 2.28253006935119629 27.3737697601318359
0.356590002775192261 2.28253006935119629 28.1422405242919922
0.356590002775192261 2.28253006935119629 28.9322891235351562
0.356590002775192261 2.28253006935119629 29.7445106506347656
0.356590002775192261 2.28253006935119629 30.5795307159423828
0.356590002775192261 2.31648993492126465 25.1919898986816406
0.356590002775192261 2.31648993492126465 25.8992195129394531
0.356590002775192261 2.31648993492126465 26.6262893676757812
0.356590002775192261 2.31648993492126465 27.3737697601318359
0.356590002775192261 2.31648993492126465 28.1422405242919922
0.356590002775192261 2.31648993492126465 28.9322891235351562
0.356590002775192261 2.31648993492126465 29.7445106506347656
0.356590002775192261 2.35095000267028809 25.1919898986816406
0.356590002775192261 2.35095000267028809 25.8992195129394531
0.356590002775192261 2.35095000267028809 26.6262893676757812
0.356590002775192261 2.35095000267028809 27.3737697601318359
0.356590002775192261 2.35095000267028809 28.1422405242919922
0.356590002775192261 2.35095000267028809 28.9322891235351562
0.356590002775192261 2.35095000267028809 29.7445106506347656
0.356590002775192261 2.38592004776000977 16.6303596496582031
0.356590002775192261 2.38592004776000977 25.1919898986816406
0.356590002775192261 2.38592004776000977 25.8992195129394531
0.356590002775192261 2.38592004776000977 26.6262893676757812
0.356590002775192261 2.38592004776000977 27.3737697601318359
0.356590002775192261 2.38592004776000977 28.1422405242919922
0.356590002775192261 2.38592004776000977 28.9322891235351562
0.356590002775192261 2.38592004776000977 29.7445106506347656
0.356590002775192261 2.42141008377075195 16.1762504577636719
0.356590002775192261 2.42141008377075195 16.6303596496582031
0.356590002775192261 2.42141008377075195 25.1919898986816406
0.356590002775192261 2.42141008377075195 25.8992195129394531
0.356590002775192261 2.42141008377075195 26.6262893676757812
0.356590002775192261 2.42141008377075195 27.3737697601318359
0.356590002775192261 2.42141008377075195 28.1422405242919922
0.356590002775192261 2.42141008377075195 28.9322891235351562
0.356590002775192261 2.42141008377075195 29.7445106506347656
0.356590002775192261 2.45742988586425781 16.1762504577636719
0.356590002775192261 2.45742988586425781 16.6303596496582031
0.356590002775192261 2.45742988586425781 25.1919898986816406
0.356590002775192261 2.45742988586425781 25.8992195129394531
0.356590002775192261 2.45742988586425781 26.6262893676757812
0.356590002775192261 2.45742988586425781 27.3737697601318359
0.356590002775192261 2.45742988586425781 28.1422405242919922
0.356590002775192261 2.45742988586425781 28.9322891235351562
0.356590002775192261 2.49397993087768555 16.1762504577636719
0.356590002775192261 2.49397993087768555 16.6303596496582031
