ply
format ascii 1.0
comment Created in Blender version 4.3.2
comment CPTu sensitivity screening - Valsson 2025
comment x(Bq) y(Fr) z(Qt)
element vertex 786
property float x
property float y
property float z
end_header
1.21229994297027588 0.569649994373321533 4.65366983413696289
1.21229994297027588 0.569649994373321533 4.78430986404418945
1.21229994297027588 0.569649994373321533 4.91862010955810547
1.21229994297027588 0.569649994373321533 5.05670976638793945
1.21229994297027588 0.569649994373321533 5.19865989685058594
1.21229994297027588 0.569649994373321533 5.34461021423339844
1.21229994297027588 0.578130006790161133 1.81542003154754639
1.21229994297027588 0.578130006790161133 1.86638998985290527
1.21229994297027588 0.578130006790161133 1.91877996921539307
1.21229994297027588 0.578130006790161133 1.97265005111694336
1.21229994297027588 0.578130006790161133 2.0280299186706543
1.21229994297027588 0.578130006790161133 2.08495998382568359
1.21229994297027588 0.578130006790161133 2.14349007606506348
1.21229994297027588 0.578130006790161133 2.20367002487182617
1.21229994297027588 0.578130006790161133 2.26553010940551758
1.21229994297027588 0.578130006790161133 2.32912993431091309
1.21229994297027588 0.578130006790161133 2.39452004432678223
1.21229994297027588 0.578130006790161133 2.46174001693725586
1.21229994297027588 0.578130006790161133 2.53084993362426758
1.21229994297027588 0.578130006790161133 2.60190010070800781
1.21229994297027588 0.578130006790161133 2.67494010925292969
1.21229994297027588 0.578130006790161133 2.75004005432128906
1.21229994297027588 0.578130006790161133 2.827239990234375
1.21229994297027588 0.578130006790161133 2.90661001205444336
1.21229994297027588 0.578130006790161133 2.98820996284484863
1.21229994297027588 0.578130006790161133 3.07209992408752441
1.21229994297027588 0.578130006790161133 3.1583399772644043
1.21229994297027588 0.578130006790161133 3.24699997901916504
1.21229994297027588 0.578130006790161133 3.33816003799438477
1.21229994297027588 0.578130006790161133 3.4318699836730957
1.21229994297027588 0.578130006790161133 3.52821993827819824
1.21229994297027588 0.578130006790161133 3.62725996971130371
1.21229994297027588 0.578130006790161133 3.72908997535705566
1.21229994297027588 0.578130006790161133 3.83378005027770996
1.21229994297027588 0.578130006790161133 3.94141006469726562
1.21229994297027588 0.578130006790161133 4.05206012725830078
1.21229994297027588 0.578130006790161133 4.16581010818481445
1.21229994297027588 0.578130006790161133 4.2827601432800293
1.21229994297027588 0.578130006790161133 4.40298986434936523
1.21229994297027588 0.578130006790161133 4.52658987045288086
1.21229994297027588 0.578130006790161133 4.65366983413696289
1.21229994297027588 0.578130006790161133 4.78430986404418945
1.21229994297027588 0.578130006790161133 4.91862010955810547
1.21229994297027588 0.578130006790161133 5.05670976638793945
1.21229994297027588 0.578130006790161133 5.19865989685058594
1.21229994297027588 0.578130006790161133 5.34461021423339844
1.21229994297027588 0.586730003356933594 1.81542003154754639
1.21229994297027588 0.586730003356933594 1.86638998985290527
1.21229994297027588 0.586730003356933594 1.91877996921539307
1.21229994297027588 0.586730003356933594 1.97265005111694336
1.21229994297027588 0.586730003356933594 2.0280299186706543
1.21229994297027588 0.586730003356933594 2.08495998382568359
1.21229994297027588 0.586730003356933594 2.14349007606506348
1.21229994297027588 0.586730003356933594 2.20367002487182617
1.21229994297027588 0.586730003356933594 2.26553010940551758
1.21229994297027588 0.586730003356933594 2.32912993431091309
1.21229994297027588 0.586730003356933594 2.39452004432678223
1.21229994297027588 0.586730003356933594 2.46174001693725586
1.21229994297027588 0.586730003356933594 2.53084993362426758
1.21229994297027588 0.586730003356933594 2.60190010070800781
1.21229994297027588 0.586730003356933594 2.67494010925292969
1.21229994297027588 0.586730003356933594 2.75004005432128906
1.21229994297027588 0.586730003356933594 2.827239990234375
1.21229994297027588 0.586730003356933594 2.90661001205444336
1.21229994297027588 0.586730003356933594 2.98820996284484863
1.21229994297027588 0.586730003356933594 3.07209992408752441
1.21229994297027588 0.586730003356933594 3.1583399772644043
1.21229994297027588 0.586730003356933594 3.24699997901916504
1.21229994297027588 0.586730003356933594 3.33816003799438477
1.21229994297027588 0.586730003356933594 3.4318699836730957
1.21229994297027588 0.586730003356933594 3.52821993827819824
1.21229994297027588 0.586730003356933594 3.62725996971130371
1.21229994297027588 0.586730003356933594 3.72908997535705566
1.21229994297027588 0.586730003356933594 3.83378005027770996
1.21229994297027588 0.586730003356933594 3.94141006469726562
1.21229994297027588 0.586730003356933594 4.05206012725830078
1.21229994297027588 0.586730003356933594 4.16581010818481445
1.21229994297027588 0.586730003356933594 4.2827601432800293
1.21229994297027588 0.586730003356933594 4.40298986434936523
1.21229994297027588 0.586730003356933594 4.52658987045288086
1.21229994297027588 0.586730003356933594 4.65366983413696289
1.21229994297027588 0.586730003356933594 4.78430986404418945
1.21229994297027588 0.586730003356933594 4.91862010955810547
1.21229994297027588 0.586730003356933594 5.05670976638793945
1.21229994297027588 0.586730003356933594 5.19865989685058594
1.21229994297027588 0.586730003356933594 5.34461021423339844
1.21229994297027588 0.586730003356933594 5.49464988708496094
1.21229994297027588 0.595459997653961182 1.81542003154754639
1.21229994297027588 0.595459997653961182 1.86638998985290527
1.21229994297027588 0.595459997653961182 1.91877996921539307
1.21229994297027588 0.595459997653961182 1.97265005111694336
1.21229994297027588 0.595459997653961182 2.0280299186706543
1.21229994297027588 0.595459997653961182 2.08495998382568359
1.21229994297027588 0.595459997653961182 2.14349007606506348
1.21229994297027588 0.595459997653961182 2.20367002487182617
1.21229994297027588 0.595459997653961182 2.26553010940551758
1.21229994297027588 0.595459997653961182 2.32912993431091309
1.21229994297027588 0.595459997653961182 2.39452004432678223
1.21229994297027588 0.595459997653961182 2.46174001693725586
1.21229994297027588 0.595459997653961182 2.53084993362426758
1.21229994297027588 0.595459997653961182 2.60190010070800781
1.21229994297027588 0.595459997653961182 2.67494010925292969
1.21229994297027588 0.595459997653961182 2.75004005432128906
1.21229994297027588 0.595459997653961182 2.827239990234375
1.21229994297027588 0.595459997653961182 2.90661001205444336
1.21229994297027588 0.595459997653961182 2.98820996284484863
1.21229994297027588 0.595459997653961182 3.07209992408752441
1.21229994297027588 0.595459997653961182 3.1583399772644043
1.21229994297027588 0.595459997653961182 3.24699997901916504
1.21229994297027588 0.595459997653961182 3.33816003799438477
1.21229994297027588 0.595459997653961182 3.4318699836730957
1.21229994297027588 0.595459997653961182 3.52821993827819824
1.21229994297027588 0.595459997653961182 3.62725996971130371
1.21229994297027588 0.595459997653961182 3.72908997535705566
1.21229994297027588 0.595459997653961182 3.83378005027770996
1.21229994297027588 0.595459997653961182 3.94141006469726562
1.21229994297027588 0.595459997653961182 4.05206012725830078
1.21229994297027588 0.595459997653961182 4.16581010818481445
1.21229994297027588 0.595459997653961182 4.2827601432800293
1.21229994297027588 0.595459997653961182 4.40298986434936523
1.21229994297027588 0.595459997653961182 4.52658987045288086
1.21229994297027588 0.595459997653961182 4.65366983413696289
1.21229994297027588 0.595459997653961182 4.78430986404418945
1.21229994297027588 0.595459997653961182 4.91862010955810547
1.21229994297027588 0.595459997653961182 5.05670976638793945
1.21229994297027588 0.595459997653961182 5.19865989685058594
1.21229994297027588 0.595459997653961182 5.34461021423339844
1.21229994297027588 0.595459997653961182 5.49464988708496094
1.21229994297027588 0.604309976100921631 1.81542003154754639
1.21229994297027588 0.604309976100921631 1.86638998985290527
1.21229994297027588 0.604309976100921631 1.91877996921539307
1.21229994297027588 0.604309976100921631 1.97265005111694336
1.21229994297027588 0.604309976100921631 2.0280299186706543
1.21229994297027588 0.604309976100921631 2.08495998382568359
1.21229994297027588 0.604309976100921631 2.14349007606506348
1.21229994297027588 0.604309976100921631 2.20367002487182617
1.21229994297027588 0.604309976100921631 2.26553010940551758
1.21229994297027588 0.604309976100921631 2.32912993431091309
1.21229994297027588 0.604309976100921631 2.39452004432678223
1.21229994297027588 0.604309976100921631 2.46174001693725586
1.21229994297027588 0.604309976100921631 2.53084993362426758
1.21229994297027588 0.604309976100921631 2.60190010070800781
1.21229994297027588 0.604309976100921631 2.67494010925292969
1.21229994297027588 0.604309976100921631 2.75004005432128906
1.21229994297027588 0.604309976100921631 2.827239990234375
1.21229994297027588 0.604309976100921631 2.90661001205444336
1.21229994297027588 0.604309976100921631 2.98820996284484863
1.21229994297027588 0.604309976100921631 3.07209992408752441
1.21229994297027588 0.604309976100921631 3.1583399772644043
1.21229994297027588 0.604309976100921631 3.24699997901916504
1.21229994297027588 0.604309976100921631 3.33816003799438477
1.21229994297027588 0.604309976100921631 3.4318699836730957
1.21229994297027588 0.604309976100921631 3.52821993827819824
1.21229994297027588 0.604309976100921631 3.62725996971130371
1.21229994297027588 0.604309976100921631 3.72908997535705566
1.21229994297027588 0.604309976100921631 3.83378005027770996
1.21229994297027588 0.604309976100921631 3.94141006469726562
1.21229994297027588 0.604309976100921631 4.05206012725830078
1.21229994297027588 0.604309976100921631 4.16581010818481445
1.21229994297027588 0.604309976100921631 4.2827601432800293
1.21229994297027588 0.604309976100921631 4.40298986434936523
1.21229994297027588 0.604309976100921631 4.52658987045288086
1.21229994297027588 0.604309976100921631 4.65366983413696289
1.21229994297027588 0.604309976100921631 4.78430986404418945
1.21229994297027588 0.604309976100921631 4.91862010955810547
1.21229994297027588 0.604309976100921631 5.05670976638793945
1.21229994297027588 0.604309976100921631 5.19865989685058594
1.21229994297027588 0.604309976100921631 5.34461021423339844
1.21229994297027588 0.604309976100921631 5.49464988708496094
1.21229994297027588 0.613300025463104248 1.81542003154754639
1.21229994297027588 0.613300025463104248 1.86638998985290527
1.21229994297027588 0.613300025463104248 1.91877996921539307
1.21229994297027588 0.613300025463104248 1.97265005111694336
1.21229994297027588 0.613300025463104248 2.0280299186706543
1.21229994297027588 0.613300025463104248 2.08495998382568359
1.21229994297027588 0.613300025463104248 2.14349007606506348
1.21229994297027588 0.613300025463104248 2.20367002487182617
1.21229994297027588 0.613300025463104248 2.26553010940551758
1.21229994297027588 0.613300025463104248 2.32912993431091309
1.21229994297027588 0.613300025463104248 2.39452004432678223
1.21229994297027588 0.613300025463104248 2.46174001693725586
1.21229994297027588 0.613300025463104248 2.53084993362426758
1.21229994297027588 0.613300025463104248 2.60190010070800781
1.21229994297027588 0.613300025463104248 2.67494010925292969
1.21229994297027588 0.613300025463104248 2.75004005432128906
1.21229994297027588 0.613300025463104248 2.827239990234375
1.21229994297027588 0.613300025463104248 2.90661001205444336
1.21229994297027588 0.613300025463104248 2.98820996284484863
1.21229994297027588 0.613300025463104248 3.07209992408752441
1.21229994297027588 0.613300025463104248 3.1583399772644043
1.21229994297027588 0.613300025463104248 3.24699997901916504
1.21229994297027588 0.613300025463104248 3.33816003799438477
1.21229994297027588 0.613300025463104248 3.4318699836730957
1.21229994297027588 0.613300025463104248 3.52821993827819824
1.21229994297027588 0.613300025463104248 3.62725996971130371
1.21229994297027588 0.613300025463104248 3.72908997535705566
1.21229994297027588 0.613300025463104248 3.83378005027770996
1.21229994297027588 0.613300025463104248 3.94141006469726562
1.21229994297027588 0.613300025463104248 4.05206012725830078
1.21229994297027588 0.613300025463104248 4.16581010818481445
1.21229994297027588 0.613300025463104248 4.2827601432800293
1.21229994297027588 0.613300025463104248 4.40298986434936523
1.21229994297027588 0.613300025463104248 4.52658987045288086
1.21229994297027588 0.613300025463104248 4.65366983413696289
1.21229994297027588 0.613300025463104248 4.78430986404418945
1.21229994297027588 0.613300025463104248 4.91862010955810547
1.21229994297027588 0.613300025463104248 5.05670976638793945
1.21229994297027588 0.613300025463104248 5.19865989685058594
1.21229994297027588 0.613300025463104248 5.34461021423339844
1.21229994297027588 0.613300025463104248 5.49464988708496094
1.21229994297027588 0.613300025463104248 5.64890003204345703
1.21229994297027588 0.622430026531219482 1.86638998985290527
1.21229994297027588 0.622430026531219482 1.91877996921539307
1.21229994297027588 0.622430026531219482 1.97265005111694336
1.21229994297027588 0.622430026531219482 2.0280299186706543
1.21229994297027588 0.622430026531219482 2.08495998382568359
1.21229994297027588 0.622430026531219482 2.14349007606506348
1.21229994297027588 0.622430026531219482 2.20367002487182617
1.21229994297027588 0.622430026531219482 2.26553010940551758
1.21229994297027588 0.622430026531219482 2.32912993431091309
1.21229994297027588 0.622430026531219482 2.39452004432678223
1.21229994297027588 0.622430026531219482 2.46174001693725586
1.21229994297027588 0.622430026531219482 2.53084993362426758
1.21229994297027588 0.622430026531219482 2.60190010070800781
1.21229994297027588 0.622430026531219482 2.67494010925292969
1.21229994297027588 0.622430026531219482 2.75004005432128906
1.21229994297027588 0.622430026531219482 2.827239990234375
1.21229994297027588 0.622430026531219482 2.90661001205444336
1.21229994297027588 0.622430026531219482 2.98820996284484863
1.21229994297027588 0.622430026531219482 3.07209992408752441
1.21229994297027588 0.622430026531219482 3.1583399772644043
1.21229994297027588 0.622430026531219482 3.24699997901916504
1.21229994297027588 0.622430026531219482 3.33816003799438477
1.21229994297027588 0.622430026531219482 3.4318699836730957
1.21229994297027588 0.622430026531219482 3.52821993827819824
1.21229994297027588 0.622430026531219482 3.62725996971130371
1.21229994297027588 0.622430026531219482 3.72908997535705566
1.21229994297027588 0.622430026531219482 3.83378005027770996
1.21229994297027588 0.622430026531219482 3.94141006469726562
1.21229994297027588 0.622430026531219482 4.05206012725830078
1.21229994297027588 0.622430026531219482 4.16581010818481445
1.21229994297027588 0.622430026531219482 4.2827601432800293
1.21229994297027588 0.622430026531219482 4.40298986434936523
1.21229994297027588 0.622430026531219482 4.52658987045288086
1.21229994297027588 0.622430026531219482 4.65366983413696289
1.21229994297027588 0.622430026531219482 4.78430986404418945
1.21229994297027588 0.622430026531219482 4.91862010955810547
1.21229994297027588 0.622430026531219482 5.05670976638793945
1.21229994297027588 0.622430026531219482 5.19865989685058594
1.21229994297027588 0.622430026531219482 5.34461021423339844
1.21229994297027588 0.622430026531219482 5.49464988708496094
1.21229994297027588 0.622430026531219482 5.64890003204345703
1.21229994297027588 0.631690025329589844 1.86638998985290527
1.21229994297027588 0.631690025329589844 1.91877996921539307
1.21229994297027588 0.631690025329589844 1.97265005111694336
1.21229994297027588 0.631690025329589844 2.0280299186706543
1.21229994297027588 0.631690025329589844 2.08495998382568359
1.21229994297027588 0.631690025329589844 2.14349007606506348
1.21229994297027588 0.631690025329589844 2.20367002487182617
1.21229994297027588 0.631690025329589844 2.26553010940551758
1.21229994297027588 0.631690025329589844 2.32912993431091309
1.21229994297027588 0.631690025329589844 2.39452004432678223
1.21229994297027588 0.631690025329589844 2.46174001693725586
1.21229994297027588 0.631690025329589844 2.53084993362426758
1.21229994297027588 0.631690025329589844 2.60190010070800781
1.21229994297027588 0.631690025329589844 2.67494010925292969
1.21229994297027588 0.631690025329589844 2.75004005432128906
1.21229994297027588 0.631690025329589844 2.827239990234375
1.21229994297027588 0.631690025329589844 2.90661001205444336
1.21229994297027588 0.631690025329589844 2.98820996284484863
1.21229994297027588 0.631690025329589844 3.07209992408752441
1.21229994297027588 0.631690025329589844 3.1583399772644043
1.21229994297027588 0.631690025329589844 3.24699997901916504
1.21229994297027588 0.631690025329589844 3.33816003799438477
1.21229994297027588 0.631690025329589844 3.4318699836730957
1.21229994297027588 0.631690025329589844 3.52821993827819824
1.21229994297027588 0.631690025329589844 3.62725996971130371
1.21229994297027588 0.631690025329589844 3.72908997535705566
1.21229994297027588 0.631690025329589844 3.83378005027770996
1.21229994297027588 0.631690025329589844 3.94141006469726562
1.21229994297027588 0.631690025329589844 4.05206012725830078
1.21229994297027588 0.631690025329589844 4.16581010818481445
1.21229994297027588 0.631690025329589844 4.2827601432800293
1.21229994297027588 0.631690025329589844 4.40298986434936523
1.21229994297027588 0.631690025329589844 4.52658987045288086
1.21229994297027588 0.631690025329589844 4.65366983413696289
1.21229994297027588 0.631690025329589844 4.78430986404418945
1.21229994297027588 0.631690025329589844 4.91862010955810547
1.21229994297027588 0.631690025329589844 5.05670976638793945
1.21229994297027588 0.631690025329589844 5.19865989685058594
1.21229994297027588 0.631690025329589844 5.34461021423339844
1.21229994297027588 0.631690025329589844 5.49464988708496094
1.21229994297027588 0.631690025329589844 5.64890003204345703
1.21229994297027588 0.641080021858215332 1.86638998985290527
1.21229994297027588 0.641080021858215332 1.91877996921539307
1.21229994297027588 0.641080021858215332 1.97265005111694336
1.21229994297027588 0.641080021858215332 2.0280299186706543
1.21229994297027588 0.641080021858215332 2.08495998382568359
1.21229994297027588 0.641080021858215332 2.14349007606506348
1.21229994297027588 0.641080021858215332 2.20367002487182617
1.21229994297027588 0.641080021858215332 2.26553010940551758
1.21229994297027588 0.641080021858215332 2.32912993431091309
1.21229994297027588 0.641080021858215332 2.39452004432678223
1.21229994297027588 0.641080021858215332 2.46174001693725586
1.21229994297027588 0.641080021858215332 2.53084993362426758
1.21229994297027588 0.641080021858215332 2.60190010070800781
1.21229994297027588 0.641080021858215332 2.67494010925292969
1.21229994297027588 0.641080021858215332 2.75004005432128906
1.21229994297027588 0.641080021858215332 2.827239990234375
1.21229994297027588 0.641080021858215332 2.90661001205444336
1.21229994297027588 0.641080021858215332 2.98820996284484863
1.21229994297027588 0.641080021858215332 3.07209992408752441
1.21229994297027588 0.641080021858215332 3.1583399772644043
1.21229994297027588 0.641080021858215332 3.24699997901916504
1.21229994297027588 0.641080021858215332 3.33816003799438477
1.21229994297027588 0.641080021858215332 3.4318699836730957
1.21229994297027588 0.641080021858215332 3.52821993827819824
1.21229994297027588 0.641080021858215332 3.62725996971130371
1.21229994297027588 0.641080021858215332 3.72908997535705566
1.21229994297027588 0.641080021858215332 3.83378005027770996
1.21229994297027588 0.641080021858215332 3.94141006469726562
1.21229994297027588 0.641080021858215332 4.05206012725830078
1.21229994297027588 0.641080021858215332 4.16581010818481445
1.21229994297027588 0.641080021858215332 4.2827601432800293
1.21229994297027588 0.641080021858215332 4.40298986434936523
1.21229994297027588 0.641080021858215332 4.52658987045288086
1.21229994297027588 0.641080021858215332 4.65366983413696289
1.21229994297027588 0.641080021858215332 4.78430986404418945
1.21229994297027588 0.641080021858215332 4.91862010955810547
1.21229994297027588 0.641080021858215332 5.05670976638793945
1.21229994297027588 0.641080021858215332 5.19865989685058594
1.21229994297027588 0.641080021858215332 5.34461021423339844
1.21229994297027588 0.641080021858215332 5.49464988708496094
1.21229994297027588 0.641080021858215332 5.64890003204345703
1.21229994297027588 0.641080021858215332 5.8074798583984375
1.21229994297027588 0.650619983673095703 1.86638998985290527
1.21229994297027588 0.650619983673095703 1.91877996921539307
1.21229994297027588 0.650619983673095703 1.97265005111694336
1.21229994297027588 0.650619983673095703 2.0280299186706543
1.21229994297027588 0.650619983673095703 2.08495998382568359
1.21229994297027588 0.650619983673095703 2.14349007606506348
1.21229994297027588 0.650619983673095703 2.20367002487182617
1.21229994297027588 0.650619983673095703 2.26553010940551758
1.21229994297027588 0.650619983673095703 2.32912993431091309
1.21229994297027588 0.650619983673095703 2.39452004432678223
1.21229994297027588 0.650619983673095703 2.46174001693725586
1.21229994297027588 0.650619983673095703 2.53084993362426758
1.21229994297027588 0.650619983673095703 2.60190010070800781
1.21229994297027588 0.650619983673095703 2.67494010925292969
1.21229994297027588 0.650619983673095703 2.75004005432128906
1.21229994297027588 0.650619983673095703 2.827239990234375
1.21229994297027588 0.650619983673095703 2.90661001205444336
1.21229994297027588 0.650619983673095703 2.98820996284484863
1.21229994297027588 0.650619983673095703 3.07209992408752441
1.21229994297027588 0.650619983673095703 3.1583399772644043
1.21229994297027588 0.650619983673095703 3.24699997901916504
1.21229994297027588 0.650619983673095703 3.33816003799438477
1.21229994297027588 0.650619983673095703 3.4318699836730957
1.21229994297027588 0.650619983673095703 3.52821993827819824
1.21229994297027588 0.650619983673095703 3.62725996971130371
1.21229994297027588 0.650619983673095703 3.72908997535705566
1.21229994297027588 0.650619983673095703 3.83378005027770996
1.21229994297027588 0.650619983673095703 3.94141006469726562
1.21229994297027588 0.650619983673095703 4.05206012725830078
1.21229994297027588 0.650619983673095703 4.16581010818481445
1.21229994297027588 0.650619983673095703 4.2827601432800293
1.21229994297027588 0.650619983673095703 4.40298986434936523
1.21229994297027588 0.650619983673095703 4.52658987045288086
1.21229994297027588 0.650619983673095703 4.65366983413696289
1.21229994297027588 0.650619983673095703 4.78430986404418945
1.21229994297027588 0.650619983673095703 4.91862010955810547
1.21229994297027588 0.650619983673095703 5.05670976638793945
1.21229994297027588 0.650619983673095703 5.19865989685058594
1.21229994297027588 0.650619983673095703 5.34461021423339844
1.21229994297027588 0.650619983673095703 5.49464988708496094
1.21229994297027588 0.650619983673095703 5.64890003204345703
1.21229994297027588 0.650619983673095703 5.8074798583984375
1.21229994297027588 0.660300016403198242 1.91877996921539307
1.21229994297027588 0.660300016403198242 1.97265005111694336
1.21229994297027588 0.660300016403198242 2.0280299186706543
1.21229994297027588 0.660300016403198242 2.08495998382568359
1.21229994297027588 0.660300016403198242 2.14349007606506348
1.21229994297027588 0.660300016403198242 2.20367002487182617
1.21229994297027588 0.660300016403198242 2.26553010940551758
1.21229994297027588 0.660300016403198242 2.32912993431091309
1.21229994297027588 0.660300016403198242 2.39452004432678223
1.21229994297027588 0.660300016403198242 2.46174001693725586
1.21229994297027588 0.660300016403198242 2.53084993362426758
1.21229994297027588 0.660300016403198242 2.60190010070800781
1.21229994297027588 0.660300016403198242 2.67494010925292969
1.21229994297027588 0.660300016403198242 2.75004005432128906
1.21229994297027588 0.660300016403198242 2.827239990234375
1.21229994297027588 0.660300016403198242 2.90661001205444336
1.21229994297027588 0.660300016403198242 2.98820996284484863
1.21229994297027588 0.660300016403198242 3.07209992408752441
1.21229994297027588 0.660300016403198242 3.1583399772644043
1.21229994297027588 0.660300016403198242 3.24699997901916504
1.21229994297027588 0.660300016403198242 3.33816003799438477
1.21229994297027588 0.660300016403198242 3.4318699836730957
1.21229994297027588 0.660300016403198242 3.52821993827819824
1.21229994297027588 0.660300016403198242 3.62725996971130371
1.21229994297027588 0.660300016403198242 3.72908997535705566
1.21229994297027588 0.660300016403198242 3.83378005027770996
1.21229994297027588 0.660300016403198242 3.94141006469726562
1.21229994297027588 0.660300016403198242 4.05206012725830078
1.21229994297027588 0.660300016403198242 4.16581010818481445
1.21229994297027588 0.660300016403198242 4.2827601432800293
1.21229994297027588 0.660300016403198242 4.40298986434936523
1.21229994297027588 0.660300016403198242 4.52658987045288086
1.21229994297027588 0.660300016403198242 4.65366983413696289
1.21229994297027588 0.660300016403198242 4.78430986404418945
1.21229994297027588 0.660300016403198242 4.91862010955810547
1.21229994297027588 0.660300016403198242 5.05670976638793945
1.21229994297027588 0.660300016403198242 5.19865989685058594
1.21229994297027588 0.660300016403198242 5.34461021423339844
1.21229994297027588 0.660300016403198242 5.49464988708496094
1.21229994297027588 0.660300016403198242 5.64890003204345703
1.21229994297027588 0.660300016403198242 5.8074798583984375
1.21229994297027588 0.670120000839233398 1.91877996921539307
1.21229994297027588 0.670120000839233398 1.97265005111694336
1.21229994297027588 0.670120000839233398 2.0280299186706543
1.21229994297027588 0.670120000839233398 2.08495998382568359
1.21229994297027588 0.670120000839233398 2.14349007606506348
1.21229994297027588 0.670120000839233398 2.20367002487182617
1.21229994297027588 0.670120000839233398 2.26553010940551758
1.21229994297027588 0.670120000839233398 2.32912993431091309
1.21229994297027588 0.670120000839233398 2.39452004432678223
1.21229994297027588 0.670120000839233398 2.46174001693725586
1.21229994297027588 0.670120000839233398 2.53084993362426758
1.21229994297027588 0.670120000839233398 2.60190010070800781
1.21229994297027588 0.670120000839233398 2.67494010925292969
1.21229994297027588 0.670120000839233398 2.75004005432128906
1.21229994297027588 0.670120000839233398 2.827239990234375
1.21229994297027588 0.670120000839233398 2.90661001205444336
1.21229994297027588 0.670120000839233398 2.98820996284484863
1.21229994297027588 0.670120000839233398 3.07209992408752441
1.21229994297027588 0.670120000839233398 3.1583399772644043
1.21229994297027588 0.670120000839233398 3.24699997901916504
1.21229994297027588 0.670120000839233398 3.33816003799438477
1.21229994297027588 0.670120000839233398 3.4318699836730957
1.21229994297027588 0.670120000839233398 3.52821993827819824
1.21229994297027588 0.670120000839233398 3.62725996971130371
1.21229994297027588 0.670120000839233398 3.72908997535705566
1.21229994297027588 0.670120000839233398 3.83378005027770996
1.21229994297027588 0.670120000839233398 3.94141006469726562
1.21229994297027588 0.670120000839233398 4.05206012725830078
1.21229994297027588 0.670120000839233398 4.16581010818481445
1.21229994297027588 0.670120000839233398 4.2827601432800293
1.21229994297027588 0.670120000839233398 4.40298986434936523
1.21229994297027588 0.670120000839233398 4.52658987045288086
1.21229994297027588 0.670120000839233398 4.65366983413696289
1.21229994297027588 0.670120000839233398 4.78430986404418945
1.21229994297027588 0.670120000839233398 5.34461021423339844
1.21229994297027588 0.670120000839233398 5.49464988708496094
1.21229994297027588 0.670120000839233398 5.64890003204345703
1.21229994297027588 0.670120000839233398 5.8074798583984375
1.21229994297027588 0.680090010166168213 1.91877996921539307
1.21229994297027588 0.680090010166168213 1.97265005111694336
1.21229994297027588 0.680090010166168213 2.0280299186706543
1.21229994297027588 0.680090010166168213 2.08495998382568359
1.21229994297027588 0.680090010166168213 2.14349007606506348
1.21229994297027588 0.680090010166168213 2.20367002487182617
1.21229994297027588 0.680090010166168213 2.26553010940551758
1.21229994297027588 0.680090010166168213 2.32912993431091309
1.21229994297027588 0.680090010166168213 2.39452004432678223
1.21229994297027588 0.680090010166168213 2.46174001693725586
1.21229994297027588 0.680090010166168213 2.53084993362426758
1.21229994297027588 0.680090010166168213 2.60190010070800781
1.21229994297027588 0.680090010166168213 2.67494010925292969
1.21229994297027588 0.680090010166168213 2.75004005432128906
1.21229994297027588 0.680090010166168213 2.827239990234375
1.21229994297027588 0.680090010166168213 2.90661001205444336
1.21229994297027588 0.680090010166168213 2.98820996284484863
1.21229994297027588 0.680090010166168213 3.07209992408752441
1.21229994297027588 0.680090010166168213 3.1583399772644043
1.21229994297027588 0.680090010166168213 3.24699997901916504
1.21229994297027588 0.680090010166168213 3.33816003799438477
1.21229994297027588 0.680090010166168213 3.4318699836730957
1.21229994297027588 0.680090010166168213 3.52821993827819824
1.21229994297027588 0.680090010166168213 3.62725996971130371
1.21229994297027588 0.680090010166168213 3.72908997535705566
1.21229994297027588 0.680090010166168213 3.83378005027770996
1.21229994297027588 0.680090010166168213 3.94141006469726562
1.21229994297027588 0.680090010166168213 4.05206012725830078
1.21229994297027588 0.680090010166168213 4.16581010818481445
1.21229994297027588 0.680090010166168213 4.2827601432800293
1.21229994297027588 0.680090010166168213 4.40298986434936523
1.21229994297027588 0.680090010166168213 5.8074798583984375
1.21229994297027588 0.680090010166168213 5.97052001953125
1.21229994297027588 0.690199971199035645 1.91877996921539307
1.21229994297027588 0.690199971199035645 1.97265005111694336
1.21229994297027588 0.690199971199035645 2.0280299186706543
1.21229994297027588 0.690199971199035645 2.08495998382568359
1.21229994297027588 0.690199971199035645 2.14349007606506348
1.21229994297027588 0.690199971199035645 2.20367002487182617
1.21229994297027588 0.690199971199035645 2.26553010940551758
1.21229994297027588 0.690199971199035645 2.32912993431091309
1.21229994297027588 0.690199971199035645 2.39452004432678223
1.21229994297027588 0.690199971199035645 2.46174001693725586
1.21229994297027588 0.690199971199035645 2.53084993362426758
1.21229994297027588 0.690199971199035645 2.60190010070800781
1.21229994297027588 0.690199971199035645 2.67494010925292969
1.21229994297027588 0.690199971199035645 2.75004005432128906
1.21229994297027588 0.690199971199035645 2.827239990234375
1.21229994297027588 0.690199971199035645 2.90661001205444336
1.21229994297027588 0.690199971199035645 2.98820996284484863
1.21229994297027588 0.690199971199035645 3.07209992408752441
1.21229994297027588 0.690199971199035645 3.1583399772644043
1.21229994297027588 0.690199971199035645 3.24699997901916504
1.21229994297027588 0.690199971199035645 3.33816003799438477
1.21229994297027588 0.690199971199035645 3.4318699836730957
1.21229994297027588 0.690199971199035645 3.52821993827819824
1.21229994297027588 0.690199971199035645 3.62725996971130371
1.21229994297027588 0.690199971199035645 3.72908997535705566
1.21229994297027588 0.690199971199035645 3.83378005027770996
1.21229994297027588 0.690199971199035645 3.94141006469726562
1.21229994297027588 0.690199971199035645 4.05206012725830078
1.21229994297027588 0.690199971199035645 4.16581010818481445
1.21229994297027588 0.700469970703125 1.97265005111694336
1.21229994297027588 0.700469970703125 2.0280299186706543
1.21229994297027588 0.700469970703125 2.08495998382568359
1.21229994297027588 0.700469970703125 2.14349007606506348
1.21229994297027588 0.700469970703125 2.20367002487182617
1.21229994297027588 0.700469970703125 2.26553010940551758
1.21229994297027588 0.700469970703125 2.32912993431091309
1.21229994297027588 0.700469970703125 2.39452004432678223
1.21229994297027588 0.700469970703125 2.46174001693725586
1.21229994297027588 0.700469970703125 2.53084993362426758
1.21229994297027588 0.700469970703125 2.60190010070800781
1.21229994297027588 0.700469970703125 2.67494010925292969
1.21229994297027588 0.700469970703125 2.75004005432128906
1.21229994297027588 0.700469970703125 2.827239990234375
1.21229994297027588 0.700469970703125 2.90661001205444336
1.21229994297027588 0.700469970703125 2.98820996284484863
1.21229994297027588 0.700469970703125 3.07209992408752441
1.21229994297027588 0.700469970703125 3.1583399772644043
1.21229994297027588 0.700469970703125 3.24699997901916504
1.21229994297027588 0.700469970703125 3.33816003799438477
1.21229994297027588 0.700469970703125 3.4318699836730957
1.21229994297027588 0.700469970703125 3.52821993827819824
1.21229994297027588 0.700469970703125 3.62725996971130371
1.21229994297027588 0.700469970703125 3.72908997535705566
1.21229994297027588 0.700469970703125 3.83378005027770996
1.21229994297027588 0.700469970703125 3.94141006469726562
1.21229994297027588 0.710889995098114014 1.97265005111694336
1.21229994297027588 0.710889995098114014 2.0280299186706543
1.21229994297027588 0.710889995098114014 2.08495998382568359
1.21229994297027588 0.710889995098114014 2.14349007606506348
1.21229994297027588 0.710889995098114014 2.20367002487182617
1.21229994297027588 0.710889995098114014 2.26553010940551758
1.21229994297027588 0.710889995098114014 2.32912993431091309
1.21229994297027588 0.710889995098114014 2.39452004432678223
1.21229994297027588 0.710889995098114014 2.46174001693725586
1.21229994297027588 0.710889995098114014 2.53084993362426758
1.21229994297027588 0.710889995098114014 2.60190010070800781
1.21229994297027588 0.710889995098114014 2.67494010925292969
1.21229994297027588 0.710889995098114014 2.75004005432128906
1.21229994297027588 0.710889995098114014 2.827239990234375
1.21229994297027588 0.710889995098114014 2.90661001205444336
1.21229994297027588 0.710889995098114014 2.98820996284484863
1.21229994297027588 0.710889995098114014 3.07209992408752441
1.21229994297027588 0.710889995098114014 3.1583399772644043
1.21229994297027588 0.710889995098114014 3.24699997901916504
1.21229994297027588 0.710889995098114014 3.33816003799438477
1.21229994297027588 0.710889995098114014 3.4318699836730957
1.21229994297027588 0.710889995098114014 3.52821993827819824
1.21229994297027588 0.710889995098114014 3.62725996971130371
1.21229994297027588 0.710889995098114014 3.72908997535705566
1.21229994297027588 0.710889995098114014 3.83378005027770996
1.21229994297027588 0.721469998359680176 2.0280299186706543
1.21229994297027588 0.721469998359680176 2.08495998382568359
1.21229994297027588 0.721469998359680176 2.14349007606506348
1.21229994297027588 0.721469998359680176 2.20367002487182617
1.21229994297027588 0.721469998359680176 2.26553010940551758
1.21229994297027588 0.721469998359680176 2.32912993431091309
1.21229994297027588 0.721469998359680176 2.39452004432678223
1.21229994297027588 0.721469998359680176 2.46174001693725586
1.21229994297027588 0.721469998359680176 2.53084993362426758
1.21229994297027588 0.721469998359680176 2.60190010070800781
1.21229994297027588 0.721469998359680176 2.67494010925292969
1.21229994297027588 0.721469998359680176 2.75004005432128906
1.21229994297027588 0.721469998359680176 2.827239990234375
1.21229994297027588 0.721469998359680176 2.90661001205444336
1.21229994297027588 0.721469998359680176 2.98820996284484863
1.21229994297027588 0.721469998359680176 3.07209992408752441
1.21229994297027588 0.721469998359680176 3.1583399772644043
1.21229994297027588 0.721469998359680176 3.24699997901916504
1.21229994297027588 0.721469998359680176 3.33816003799438477
1.21229994297027588 0.721469998359680176 3.4318699836730957
1.21229994297027588 0.721469998359680176 3.52821993827819824
1.21229994297027588 0.721469998359680176 3.62725996971130371
1.21229994297027588 0.732200026512145996 2.0280299186706543
1.21229994297027588 0.732200026512145996 2.08495998382568359
1.21229994297027588 0.732200026512145996 2.14349007606506348
1.21229994297027588 0.732200026512145996 2.20367002487182617
1.21229994297027588 0.732200026512145996 2.26553010940551758
1.21229994297027588 0.732200026512145996 2.32912993431091309
1.21229994297027588 0.732200026512145996 2.39452004432678223
1.21229994297027588 0.732200026512145996 2.46174001693725586
1.21229994297027588 0.732200026512145996 2.53084993362426758
1.21229994297027588 0.732200026512145996 2.60190010070800781
1.21229994297027588 0.732200026512145996 2.67494010925292969
1.21229994297027588 0.732200026512145996 2.75004005432128906
1.21229994297027588 0.732200026512145996 2.827239990234375
1.21229994297027588 0.732200026512145996 2.90661001205444336
1.21229994297027588 0.732200026512145996 2.98820996284484863
1.21229994297027588 0.732200026512145996 3.07209992408752441
1.21229994297027588 0.732200026512145996 3.1583399772644043
1.21229994297027588 0.732200026512145996 3.24699997901916504
1.21229994297027588 0.732200026512145996 3.33816003799438477
1.21229994297027588 0.732200026512145996 3.4318699836730957
1.21229994297027588 0.732200026512145996 3.52821993827819824
1.21229994297027588 0.743089973926544189 2.0280299186706543
1.21229994297027588 0.743089973926544189 2.08495998382568359
1.21229994297027588 0.743089973926544189 2.14349007606506348
1.21229994297027588 0.743089973926544189 2.20367002487182617
1.21229994297027588 0.743089973926544189 2.26553010940551758
1.21229994297027588 0.743089973926544189 2.32912993431091309
1.21229994297027588 0.743089973926544189 2.39452004432678223
1.21229994297027588 0.743089973926544189 2.46174001693725586
1.21229994297027588 0.743089973926544189 2.53084993362426758
1.21229994297027588 0.743089973926544189 2.60190010070800781
1.21229994297027588 0.743089973926544189 2.67494010925292969
1.21229994297027588 0.743089973926544189 2.75004005432128906
1.21229994297027588 0.743089973926544189 2.827239990234375
1.21229994297027588 0.743089973926544189 2.90661001205444336
1.21229994297027588 0.743089973926544189 2.98820996284484863
1.21229994297027588 0.743089973926544189 3.07209992408752441
1.21229994297027588 0.743089973926544189 3.1583399772644043
1.21229994297027588 0.743089973926544189 3.24699997901916504
1.21229994297027588 0.743089973926544189 3.33816003799438477
1.21229994297027588 0.743089973926544189 3.4318699836730957
1.21229994297027588 0.754149973392486572 2.08495998382568359
1.21229994297027588 0.754149973392486572 2.14349007606506348
1.21229994297027588 0.754149973392486572 2.20367002487182617
1.21229994297027588 0.754149973392486572 2.26553010940551758
1.21229994297027588 0.754149973392486572 2.32912993431091309
1.21229994297027588 0.754149973392486572 2.39452004432678223
1.21229994297027588 0.754149973392486572 2.46174001693725586
1.21229994297027588 0.754149973392486572 2.53084993362426758
1.21229994297027588 0.754149973392486572 2.60190010070800781
1.21229994297027588 0.754149973392486572 2.67494010925292969
1.21229994297027588 0.754149973392486572 2.75004005432128906
1.21229994297027588 0.754149973392486572 2.827239990234375
1.21229994297027588 0.754149973392486572 2.90661001205444336
1.21229994297027588 0.754149973392486572 2.98820996284484863
1.21229994297027588 0.754149973392486572 3.07209992408752441
1.21229994297027588 0.754149973392486572 3.1583399772644043
1.21229994297027588 0.754149973392486572 3.24699997901916504
1.21229994297027588 0.765359997749328613 2.08495998382568359
1.21229994297027588 0.765359997749328613 2.14349007606506348
1.21229994297027588 0.765359997749328613 2.20367002487182617
1.21229994297027588 0.765359997749328613 2.26553010940551758
1.21229994297027588 0.765359997749328613 2.32912993431091309
1.21229994297027588 0.765359997749328613 2.39452004432678223
1.21229994297027588 0.765359997749328613 2.46174001693725586
1.21229994297027588 0.765359997749328613 2.53084993362426758
1.21229994297027588 0.765359997749328613 2.60190010070800781
1.21229994297027588 0.765359997749328613 2.67494010925292969
1.21229994297027588 0.765359997749328613 2.75004005432128906
1.21229994297027588 0.765359997749328613 2.827239990234375
1.21229994297027588 0.765359997749328613 2.90661001205444336
1.21229994297027588 0.765359997749328613 2.98820996284484863
1.21229994297027588 0.765359997749328613 3.07209992408752441
1.21229994297027588 0.765359997749328613 3.1583399772644043
1.21229994297027588 0.776750028133392334 2.14349007606506348
1.21229994297027588 0.776750028133392334 2.20367002487182617
1.21229994297027588 0.776750028133392334 2.26553010940551758
1.21229994297027588 0.776750028133392334 2.32912993431091309
1.21229994297027588 0.776750028133392334 2.39452004432678223
1.21229994297027588 0.776750028133392334 2.46174001693725586
1.21229994297027588 0.776750028133392334 2.53084993362426758
1.21229994297027588 0.776750028133392334 2.60190010070800781
1.21229994297027588 0.776750028133392334 2.67494010925292969
1.21229994297027588 0.776750028133392334 2.75004005432128906
1.21229994297027588 0.776750028133392334 2.827239990234375
1.21229994297027588 0.776750028133392334 2.90661001205444336
1.21229994297027588 0.776750028133392334 2.98820996284484863
1.21229994297027588 0.776750028133392334 3.07209992408752441
1.21229994297027588 0.788299977779388428 2.14349007606506348
1.21229994297027588 0.788299977779388428 2.20367002487182617
1.21229994297027588 0.788299977779388428 2.26553010940551758
1.21229994297027588 0.788299977779388428 2.32912993431091309
1.21229994297027588 0.788299977779388428 2.39452004432678223
1.21229994297027588 0.788299977779388428 2.46174001693725586
1.21229994297027588 0.788299977779388428 2.53084993362426758
1.21229994297027588 0.788299977779388428 2.60190010070800781
1.21229994297027588 0.788299977779388428 2.67494010925292969
1.21229994297027588 0.788299977779388428 2.75004005432128906
1.21229994297027588 0.788299977779388428 2.827239990234375
1.21229994297027588 0.788299977779388428 2.90661001205444336
1.21229994297027588 0.800029993057250977 2.20367002487182617
1.21229994297027588 0.800029993057250977 2.26553010940551758
1.21229994297027588 0.800029993057250977 2.32912993431091309
1.21229994297027588 0.800029993057250977 2.39452004432678223
1.21229994297027588 0.800029993057250977 2.46174001693725586
1.21229994297027588 0.800029993057250977 2.53084993362426758
1.21229994297027588 0.800029993057250977 2.60190010070800781
1.21229994297027588 0.800029993057250977 2.67494010925292969
1.21229994297027588 0.800029993057250977 2.75004005432128906
1.21229994297027588 0.800029993057250977 2.827239990234375
1.21229994297027588 0.811930000782012939 2.26553010940551758
1.21229994297027588 0.811930000782012939 2.32912993431091309
1.21229994297027588 0.811930000782012939 2.39452004432678223
1.21229994297027588 0.811930000782012939 2.46174001693725586
1.21229994297027588 0.811930000782012939 2.53084993362426758
1.21229994297027588 0.811930000782012939 2.60190010070800781
1.21229994297027588 0.811930000782012939 2.67494010925292969
1.21229994297027588 0.824010014533996582 2.39452004432678223
1.21229994297027588 0.824010014533996582 2.46174001693725586
1.21229994297027588 0.824010014533996582 2.53084993362426758
1.22633004188537598 0.284579992294311523 2.32912993431091309
1.22633004188537598 0.284579992294311523 2.39452004432678223
1.22633004188537598 0.284579992294311523 2.46174001693725586
1.22633004188537598 0.284579992294311523 2.53084993362426758
1.22633004188537598 0.288819998502731323 2.26553010940551758
1.22633004188537598 0.288819998502731323 2.32912993431091309
1.22633004188537598 0.288819998502731323 2.39452004432678223
1.22633004188537598 0.288819998502731323 2.46174001693725586
1.22633004188537598 0.288819998502731323 2.53084993362426758
1.22633004188537598 0.288819998502731323 2.60190010070800781
1.22633004188537598 0.293110013008117676 2.20367002487182617
1.22633004188537598 0.293110013008117676 2.26553010940551758
1.22633004188537598 0.293110013008117676 2.32912993431091309
1.22633004188537598 0.293110013008117676 2.39452004432678223
1.22633004188537598 0.293110013008117676 2.46174001693725586
1.22633004188537598 0.293110013008117676 2.53084993362426758
1.22633004188537598 0.293110013008117676 2.60190010070800781
1.22633004188537598 0.293110013008117676 2.67494010925292969
1.22633004188537598 0.297470003366470337 2.20367002487182617
1.22633004188537598 0.297470003366470337 2.26553010940551758
1.22633004188537598 0.297470003366470337 2.32912993431091309
1.22633004188537598 0.297470003366470337 2.39452004432678223
1.22633004188537598 0.297470003366470337 2.46174001693725586
1.22633004188537598 0.297470003366470337 2.53084993362426758
1.22633004188537598 0.297470003366470337 2.60190010070800781
1.22633004188537598 0.297470003366470337 2.67494010925292969
1.22633004188537598 0.297470003366470337 2.75004005432128906
1.22633004188537598 0.301899999380111694 2.14349007606506348
1.22633004188537598 0.301899999380111694 2.20367002487182617
1.22633004188537598 0.301899999380111694 2.26553010940551758
1.22633004188537598 0.301899999380111694 2.32912993431091309
1.22633004188537598 0.301899999380111694 2.39452004432678223
1.22633004188537598 0.301899999380111694 2.46174001693725586
1.22633004188537598 0.301899999380111694 2.53084993362426758
1.22633004188537598 0.301899999380111694 2.60190010070800781
1.22633004188537598 0.301899999380111694 2.67494010925292969
1.22633004188537598 0.301899999380111694 2.75004005432128906
1.22633004188537598 0.301899999380111694 2.827239990234375
1.22633004188537598 0.306389987468719482 2.14349007606506348
1.22633004188537598 0.306389987468719482 2.20367002487182617
1.22633004188537598 0.306389987468719482 2.26553010940551758
1.22633004188537598 0.306389987468719482 2.32912993431091309
1.22633004188537598 0.306389987468719482 2.39452004432678223
1.22633004188537598 0.306389987468719482 2.46174001693725586
1.22633004188537598 0.306389987468719482 2.53084993362426758
1.22633004188537598 0.306389987468719482 2.60190010070800781
1.22633004188537598 0.306389987468719482 2.67494010925292969
1.22633004188537598 0.306389987468719482 2.75004005432128906
1.22633004188537598 0.306389987468719482 2.827239990234375
1.22633004188537598 0.310950011014938354 2.08495998382568359
1.22633004188537598 0.310950011014938354 2.14349007606506348
1.22633004188537598 0.310950011014938354 2.20367002487182617
1.22633004188537598 0.310950011014938354 2.26553010940551758
1.22633004188537598 0.310950011014938354 2.32912993431091309
1.22633004188537598 0.310950011014938354 2.39452004432678223
1.22633004188537598 0.310950011014938354 2.46174001693725586
1.22633004188537598 0.310950011014938354 2.53084993362426758
1.22633004188537598 0.310950011014938354 2.60190010070800781
1.22633004188537598 0.310950011014938354 2.67494010925292969
1.22633004188537598 0.310950011014938354 2.75004005432128906
1.22633004188537598 0.310950011014938354 2.827239990234375
1.22633004188537598 0.310950011014938354 2.90661001205444336
1.22633004188537598 0.31556999683380127 2.08495998382568359
1.22633004188537598 0.31556999683380127 2.14349007606506348
1.22633004188537598 0.31556999683380127 2.20367002487182617
1.22633004188537598 0.31556999683380127 2.26553010940551758
1.22633004188537598 0.31556999683380127 2.32912993431091309
1.22633004188537598 0.31556999683380127 2.39452004432678223
1.22633004188537598 0.31556999683380127 2.46174001693725586
1.22633004188537598 0.31556999683380127 2.53084993362426758
1.22633004188537598 0.31556999683380127 2.60190010070800781
1.22633004188537598 0.31556999683380127 2.67494010925292969
1.22633004188537598 0.31556999683380127 2.75004005432128906
1.22633004188537598 0.31556999683380127 2.827239990234375
1.22633004188537598 0.31556999683380127 2.90661001205444336
